ply
format ascii 1.0
comment VCGLIB generated
element vertex 749
property float x
property float y
property float z
property float nx
property float ny
property float nz
element face 0
property list uchar int vertex_indices
end_header
-0.2546527 0.2919616 0.3889904 -0.464586 -0.8828477 -0.06825233 
-0.04592046 0.2454663 0.7006451 -0.0632339 0.9958594 -0.06502441 
-0.240864 0.2298613 -0.379237 -0.5890778 0.735805 0.2427818 
-0.3185616 0.4760276 0.5582895 -0.723196 0.2651418 0.6365633 
-0.1652678 0.1861927 -0.06532406 0.5452146 0.1548907 0.8228679 
0.2885844 0.1886193 0.4573449 0.03018334 0.9826902 -0.1825683 
0.1989654 0.2867529 0.3841923 0.7419039 0.5728762 -0.3294855 
0.1197114 0.4053415 0.612713 0.7229105 0.6395543 0.2421335 
-0.1568745 0.3192042 -0.4786277 -0.02027954 -0.1844067 -0.9778429 
-0.4135818 0.2022346 -0.3035077 0.04679638 0.9758602 0.213147 
-0.1135633 0.2917325 -0.2140201 0.8751286 0.3989575 -0.2730726 
-0.5568494 0.1834826 0.6906137 -0.09995487 0.9846309 -0.142619 
-0.4738441 0.1867524 0.6774825 -0.03722493 0.9824052 -0.1827737 
-0.297401 0.3406557 -0.2835754 -0.9430367 -0.2862745 -0.1616463 
-0.3185095 0.4902748 -0.2812985 -0.911872 0.3418283 -0.2198552 
0.08643769 0.2515571 0.7816563 0.002019216 0.9997608 -0.02123886 
-0.1157157 0.3303228 -0.09910417 0.9084054 0.3994517 0.09882607 
-0.2855306 0.2375118 0.8590677 -0.1090237 0.9900199 -0.08899546 
-0.4063192 0.1889883 0.2802174 -0.1141143 0.9927485 0.03678538 
0.01974746 0.1814912 0.4089178 0.4519938 0.7815776 -0.389626 
0.1394395 0.2942666 0.4613742 -0.9793126 0.1182898 -0.1165829 
-0.4142238 0.2259237 -0.6215734 -0.1388974 0.987733 -0.07082701 
-0.7405748 0.1658128 0.4060141 -0.1338465 0.9858567 0.1006578 
-0.008913308 0.3288608 0.595005 -0.2486763 0.2287816 -0.8927175 
-0.7485508 0.1790385 0.06973153 -0.01418519 0.9998941 -0.003116251 
-0.1365686 0.1380971 0.2589385 0.3497163 0.898561 0.1352831 
-0.1781806 0.1646119 0.1452408 0.1243867 0.9548817 -0.2680812 
-0.2553559 0.4099135 0.1397725 0.9926612 -0.1004571 0.01650575 
-0.3669332 0.5477521 0.3433277 -0.4525387 0.881904 0.1224152 
-0.3125695 0.1549248 0.5688281 0.153127 0.962238 -0.2234939 
-0.3933344 0.1842094 0.6557076 -0.01871604 0.9712539 -0.236469 
-0.2264282 0.2316716 0.7304221 -0.2028152 0.9661165 -0.156146 
-0.3005565 0.5309227 -0.2093609 -0.4281289 0.8948492 -0.1022731 
0.1397605 0.3162802 0.4647511 -0.9818841 -0.004871999 -0.1654044 
-0.4249583 0.1799724 -0.1961654 0.12029 0.9744285 0.1883937 
-0.1520137 0.2814843 -0.47706 0.1724498 0.732589 -0.6298755 
-0.3410115 0.156268 0.5447811 0.1745208 0.9785927 -0.1013069 
0.0143772 0.2452485 0.6511497 -0.07994711 0.9909751 -0.07776625 
0.1270501 0.2470219 -0.330504 0.201149 0.9793546 0.01904264 
-0.2009708 0.4782935 -0.169091 0.8264167 0.4376349 0.3514974 
-0.3760798 0.2944434 0.120823 -0.9655178 -0.1460429 0.214651 
-0.3517368 0.2670822 0.1995161 -0.9510366 0.06975171 0.2985998 
-0.1548609 0.1525152 0.1163056 0.04446166 0.9245005 -0.3782751 
-0.0280957 0.47079 0.5865622 0.2474279 0.5784543 -0.7611532 
-0.7017551 0.1801624 -0.1164944 -0.01801285 0.9996293 0.01918991 
0.1793749 0.3516248 0.4961841 0.7105868 0.683175 -0.09738833 
-0.05319113 0.06968934 0.05048051 0.6011839 0.6815491 -0.4128232 
-0.1138721 0.1984542 0.453212 -0.7039527 -0.4115986 0.4245313 
-0.1889673 0.2519648 0.5022898 -0.5336894 -0.8428726 0.06692099 
-0.3481678 0.5548475 0.3457404 -0.260565 0.9562184 0.04233006 
0.2230471 0.1964267 0.4819315 0.08032271 0.9696798 -0.2055096 
-0.5106634 0.1722808 0.5625231 0.01468939 0.9995034 -0.02442706 
-0.2182857 0.3936863 -0.4677708 -0.2892475 0.3039508 -0.8964947 
-0.6798739 0.1818028 0.1873364 -0.01371386 0.9995831 -0.02533888 
-0.4389104 0.4554895 -0.0663209 -0.8805591 0.3101667 -0.3567385 
-0.4086418 0.341485 -0.09006871 -0.6675988 -0.6133005 -0.4206383 
-0.3138271 0.4572868 0.3513274 0.6650158 0.5622045 -0.05506847 
-0.2735289 0.3234257 0.5319596 -0.6414483 -0.6566042 0.3949745 
-0.03623438 0.1203536 0.2305405 -0.2283991 0.6834068 0.6664658 
0.003808078 0.2855073 0.5316895 0.2071669 0.8725445 -0.4397233 
0.1277178 0.1602723 0.3459186 -0.7603586 0.637221 -0.01552469 
-0.6951623 0.1822284 0.2694943 -0.05984358 0.9975961 0.03383103 
-0.1448922 0.3671524 0.5900819 0.4340757 0.1527978 -0.8103108 
-0.3303789 0.5014594 0.002084577 0.915211 0.3898422 0.08115764 
0.1119193 0.4148208 0.6040102 0.6680785 0.7265555 0.09901721 
-0.4991305 0.2239918 -0.5122763 -0.004587719 0.9999002 0.01091381 
-0.3946588 0.5500487 0.1304047 -0.1246036 0.9871818 -0.07491453 
-0.3414471 0.2217475 -0.3936846 -0.07011912 0.9753755 0.2087717 
-0.1663557 0.2466467 0.8521163 -0.05652905 0.9966187 -0.0592768 
0.3994203 0.1553214 0.08229242 0.115286 0.9905785 0.07060903 
0.1095134 0.1563771 0.3232176 -0.3055589 0.8038073 0.04280832 
-0.1319375 0.1645571 -0.07543964 0.5247072 0.5520655 0.6467659 
-0.3498346 0.2500102 -0.03892855 -0.811135 -0.4714375 -0.3449199 
-0.06760882 0.2427561 0.6862502 -0.06900354 0.9918748 -0.1043797 
-0.2482859 0.2930581 -0.4006441 -0.7515366 -0.4524606 -0.4781439 
-0.3031808 0.5027134 0.5596499 -0.6333951 0.4615229 0.6176623 
0.08263022 0.1571321 0.3001204 0.2264909 0.9681969 -0.002032053 
-0.3367981 0.5387089 0.4694998 -0.5751855 0.7412671 0.3396917 
-0.2086473 0.1521055 0.0120516 0.4397787 0.8490239 0.2868508 
-0.602876 0.1797199 0.02606683 0.008767433 0.9999579 -0.001088746 
-0.4411227 0.5113959 0.03832297 -0.7383384 0.6448352 -0.1875282 
-0.583365 0.1802352 0.1335909 0.02523045 0.9994521 -0.02116699 
-0.4070756 0.3123716 -0.02701118 -0.6522233 -0.7298923 -0.2040614 
0.02040264 0.1623771 0.2596365 -0.06660524 0.6475624 -0.7127458 
-0.002561038 0.2770999 -0.4589484 0.196671 0.9804364 0.002016774 
-0.453217 0.225255 -0.5231411 -0.05538852 0.998434 -0.001727139 
0.2405392 0.1706666 0.1472467 0.2827278 0.9570051 0.006508203 
0.07067792 0.2467503 0.6375763 0.01619012 0.9515553 0.1536924 
0.02533443 0.1829644 0.326524 0.5125483 0.817953 0.2602631 
-0.3360432 0.5205826 -0.1311951 -0.269999 0.9581481 0.003365269 
-0.3039958 0.3899208 -0.3418826 -0.9900298 -0.1371593 -0.02468503 
-0.3221595 0.2411113 -0.4762969 -0.1705742 0.9703535 0.1710441 
-0.3120503 0.3403513 0.4862764 -0.7108923 -0.6226473 0.3259659 
-0.1782074 0.3630796 0.6418233 -0.1546016 -0.7236342 0.6713445 
-0.1949273 0.4901146 -0.3763862 0.444156 0.7811188 -0.418889 
-0.1157076 0.3506615 0.3650151 0.7694331 0.6360251 -0.03636441 
-0.07286716 0.0851155 0.01693171 0.6717908 0.7339069 0.09345914 
-0.3647988 0.2862972 0.16307 -0.9525137 -0.09473747 0.2892091 
0.3043336 0.202076 -0.1464433 0.2071759 0.9761538 0.06477454 
0.2547071 0.2072253 0.5560638 0.04721889 0.9880645 -0.1465558 
-0.4200613 0.4518306 -0.1099956 -0.863537 0.2041718 -0.4578969 
-0.4325809 0.2197969 -0.6722028 -0.09553836 0.9923351 -0.07809593 
0.1317531 0.2179783 -0.02962861 0.4872399 0.8641798 -0.04027608 
0.07110447 0.2399502 -0.102045 0.5094245 0.8037889 -0.2732588 
0.006010112 0.241602 -0.237305 -0.1145867 0.9717882 0.2053821 
-0.2684492 0.3614462 0.1464037 0.9411488 -0.3349923 0.03313873 
-0.3778802 0.434385 -0.1776033 -0.8183154 0.03442269 -0.5721921 
-0.3138984 0.1692755 0.401899 -0.07699193 0.8954099 0.4335333 
-0.2918591 0.5314336 -0.1506177 -0.06091725 0.9758557 0.197592 
0.2213878 0.2267372 -0.505016 0.2050668 0.978608 -0.01599923 
-0.2783958 0.4017103 -0.02621861 0.1857321 0.9740464 0.07724353 
-0.01820098 0.2930657 0.6138673 0.08282997 0.1140912 0.989418 
-0.01256619 0.07100454 -0.05713038 0.06577529 0.7149327 0.6937447 
0.1451357 0.2153703 -0.08097889 0.1569023 0.9763179 0.1320564 
-0.3489513 0.2197545 0.2569039 -0.8083851 0.5188105 0.2667379 
-0.2805367 0.2225177 0.7450549 -0.1941088 0.9597804 -0.2013101 
-0.6310941 0.223351 -0.4706178 0.00705016 0.9941406 0.1076822 
-0.01475638 0.2020252 0.3668813 0.6744581 0.7259191 0.09355409 
-0.4653611 0.171275 0.527315 0.05975896 0.9978851 0.02195609 
-0.2718232 0.5210466 -0.3213117 -0.3239463 0.8736247 -0.3266506 
-0.1261757 0.3153961 -0.04813468 0.9074782 0.1107356 0.3854772 
0.1137988 0.4130803 0.5778081 0.5525962 0.8147386 -0.1489666 
-0.322006 0.4493127 -0.02227536 0.9237584 -0.05825688 0.3731293 
-0.1171267 0.2491831 0.8582386 -0.03738339 0.9983978 -0.04234901 
0.1321359 0.2173011 0.03220287 0.5766994 0.8116096 0.07091387 
-0.3141537 0.2315724 0.8356651 -0.1183301 0.985562 -0.1202703 
0.3546898 0.1735085 0.006240089 0.1760597 0.967407 0.1818665 
-0.4153616 0.3639833 0.1363629 -0.573858 -0.7670335 0.2812071 
-0.2511689 0.3595178 0.5997597 -0.6045228 -0.5066549 0.6138541 
-0.1431317 0.2701544 -0.5927521 -0.08881693 0.9831299 -0.1595997 
-0.3475228 0.2174721 -0.01874985 -0.8700906 0.001686381 -0.4613045 
-0.5535733 0.1995538 -0.2642474 -0.01208683 0.9906037 0.1361439 
0.04928662 0.2380916 -0.141745 0.2300033 0.9469991 -0.203228 
0.1297015 0.2107456 0.1298266 0.2910752 0.9527594 -0.05355381 
0.05602547 0.1635369 0.3336802 0.3856586 0.8957314 0.2153659 
-0.252333 0.1434424 0.5530682 0.04918687 0.9641406 -0.2400525 
-0.09927516 0.2757031 -0.1908418 0.9074082 0.3866873 -0.1621497 
-0.2667921 0.5671815 0.4362274 0.1457647 0.9681465 -0.1861052 
-0.3988585 0.4612435 0.4191457 -0.9311444 0.04564281 0.356788 
-0.2139715 0.4548488 0.651799 -0.4631256 0.2583218 0.8443242 
-0.2514739 0.3810736 -0.4483872 -0.6313267 -0.08444468 -0.7700734 
-0.4756905 0.2244098 -0.5231239 -0.02923473 0.9995481 -0.003720578 
-0.06911453 0.2793592 0.3611717 0.8677084 0.4939188 0.05405262 
0.3677955 0.1679923 0.3177166 -0.01307769 0.99465 -0.1009837 
-0.1464194 0.433415 -0.3974745 0.7530272 0.5802805 -0.3087363 
0.3287855 0.1907446 -0.07715682 0.2050682 0.9730595 0.1052856 
-0.1561125 0.2153147 -0.0667123 0.6556603 -0.3799985 0.6460543 
-0.3841232 0.2839016 0.05920995 -0.9069643 -0.3749095 0.1714404 
-0.1728342 0.4004083 0.5669894 0.3302417 -0.5570371 -0.7495974 
-0.2223876 0.2123091 0.6586915 -0.2899536 0.8716909 -0.3925948 
0.1460238 0.288641 0.583499 0.4727333 -0.3616291 0.7914865 
-0.3661571 0.2696846 0.1496025 -0.965326 -0.1325542 0.2239896 
-0.09803679 0.1211304 0.2642052 0.3450867 0.812301 -0.1144157 
-0.1976143 0.2582791 0.002539333 0.2524579 -0.5609781 0.785989 
-0.273315 0.3428974 0.1249355 0.9189508 -0.3607666 0.1575955 
-0.0636311 0.1649702 0.2055538 -0.2535328 0.6108257 0.741891 
0.2155945 0.2082409 0.2670283 0.7458398 0.6292868 -0.2151762 
-0.2201101 0.2735752 -0.4577797 -0.8411419 0.4769967 -0.2518435 
0.1529524 0.2878735 0.5784419 0.5273973 -0.3809382 0.7540717 
0.2788883 0.2037928 0.5421319 0.05826026 0.9865587 -0.1525947 
-0.1607689 0.4338231 -0.2439999 0.9230289 0.3324459 0.1889831 
-0.6609856 0.179813 0.003525137 -0.005987331 0.9999795 0.00149216 
-0.1284064 0.1538116 -0.06736464 0.497209 0.6671645 0.5539837 
0.2129709 0.2242576 -0.1961669 0.1871509 0.9798169 0.06905098 
0.117116 0.2464501 -0.6096524 0.1981787 0.9771664 -0.07626883 
0.120401 0.2429222 -0.2377752 0.131535 0.9857653 0.1034373 
-0.3953287 0.2315281 -0.5615804 -0.1687535 0.9853504 -0.0212535 
-0.1086228 0.3230625 0.5142187 0.47307 0.8773814 -0.07394852 
-0.3133834 0.2947 -0.1976779 -0.8249983 -0.4291095 -0.3671737 
-0.1990851 0.5617128 0.5211283 0.1803793 0.9683867 0.05874261 
-0.2194725 0.1889157 0.400281 -0.2074631 0.6476466 0.7307028 
-0.2275967 0.1441487 0.4617808 0.008665117 0.9449952 0.3161764 
-0.5754373 0.1744442 0.6143125 -0.04078061 0.9978194 -0.05105412 
-0.141619 0.5419052 0.5585526 0.3915694 0.8949791 0.03339307 
-0.09409571 0.3175272 0.3939541 0.8368408 0.5372475 0.1017867 
0.08628592 0.2256993 0.1722506 0.02485379 0.9602784 -0.2734753 
0.2690767 0.162867 0.220684 0.2959311 0.9447391 -0.05803259 
-0.7189832 0.179747 -0.1064306 -0.01461336 0.9998042 0.01273424 
-0.3583333 0.1636839 -0.04120562 -0.6866647 0.5907083 -0.3568044 
-0.185111 0.1374624 0.4859334 -0.02102111 0.9779037 0.1812252 
-0.2469895 0.4201135 0.5016356 0.7572067 -0.07663335 -0.6072724 
0.1615202 0.2662977 0.2994969 0.222555 0.8899729 -0.3586437 
-0.1365508 0.2937634 -0.0303514 0.8400451 -0.1655815 0.5073336 
-0.3590637 0.2282015 -0.4345002 -0.1068786 0.9792242 0.1718465 
-0.1421927 0.3724744 -0.1612674 0.8858519 0.4496929 0.09778423 
-0.2762274 0.4645677 0.2811849 0.09928294 0.9801444 0.1533206 
0.1303652 0.2258679 -0.1319282 0.06662987 0.981553 0.1790024 
-0.6331254 0.1832751 0.2161791 -0.008839547 0.9994558 -0.03129241 
-0.3874309 0.1867071 0.06727771 -0.6770099 0.7004735 -0.2071186 
-0.432196 0.200702 0.7343494 -0.06171344 0.9738306 -0.2186404 
0.3393977 0.1613241 0.09070634 0.1093908 0.9877533 0.1082458 
-0.3601702 0.3463745 0.2162949 -0.5461051 -0.8289556 0.07066018 
-0.4018188 0.3066067 -0.02219045 -0.6569795 -0.7307516 -0.183485 
-0.1699611 0.1363603 0.4937277 -0.0451429 0.9881133 0.1181611 
-0.2664317 0.2251021 0.7440255 -0.2066346 0.9592764 -0.1901492 
-0.4298477 0.2034066 0.7454884 -0.06701992 0.9732997 -0.2195235 
-0.6982229 0.1659238 0.5501141 -0.1048202 0.9943858 0.009770222 
0.2978444 0.1673032 0.3398015 -0.03335744 0.9891711 -0.142548 
-0.2357648 0.3728981 -0.4605292 -0.5872001 -0.1167898 -0.7842155 
-0.5570156 0.2091134 -0.344175 -0.01712156 0.994274 0.1054668 
0.2909049 0.2103589 -0.242882 0.216661 0.9750538 0.0482237 
-0.2301143 0.173405 0.4133678 -0.1289225 0.74563 0.6509352 
-0.2096614 0.2842436 -0.4651449 -0.6609128 0.5377349 -0.5148373 
0.07023074 0.2570981 -0.3158244 0.1323493 0.9888676 0.06238788 
0.08935247 0.2572495 -0.4588832 0.218412 0.9754976 0.02614011 
-0.2901081 0.4444231 0.4402795 0.8269854 0.09099569 -0.4379219 
-0.220419 0.2685893 -0.4786404 -0.51598 0.8484868 -0.07524107 
-0.3948856 0.3527351 -0.1239491 -0.700247 -0.5110691 -0.4974771 
-0.2678075 0.3241591 0.08494163 0.8048736 -0.3785052 0.4561441 
-0.3115711 0.4742005 0.1888534 0.05256778 0.9949998 -0.05187822 
0.06802154 0.1560179 0.3886756 0.1027082 0.9550104 -0.2359654 
-0.4513814 0.3622051 0.02838725 -0.907737 -0.4064954 0.01806843 
-0.3150838 0.1595413 -0.146346 -0.555878 0.7906602 -0.1179547 
-0.189675 0.3342642 0.01812391 0.5923017 0.2026681 0.7749751 
0.1801882 0.2361306 -0.4760158 0.2208132 0.9752802 -0.007190655 
-0.3032954 0.3839112 -0.3228163 -0.9889542 -0.1447486 -0.02627689 
-0.2672811 0.2100117 0.6867863 -0.2430399 0.9119152 -0.3282954 
-0.2463413 0.179425 0.1138078 0.5585271 0.7773535 -0.2818183 
-0.08913834 0.4276867 0.5638477 0.2190613 -0.299499 -0.9087029 
-0.1044712 0.2483093 0.8208787 -0.04482131 0.9983769 -0.0346467 
-0.3987142 0.3641566 0.1894993 -0.471037 -0.8780982 0.07862701 
-0.004834358 0.1643737 0.08818059 -0.7433121 0.3018431 -0.5910809 
-0.2189828 0.2706886 0.384432 -0.6031624 -0.783658 0.125802 
-0.6778302 0.179729 0.04228259 -0.008313889 0.999959 -0.00306092 
0.3769714 0.1570432 0.1645525 0.06308168 0.9974088 -0.02949448 
0.2867057 0.1638393 0.1213443 0.1203644 0.9881617 0.09449223 
-0.4186302 0.5421456 0.1268869 -0.4786202 0.8754933 -0.02628632 
-0.003426323 0.3228016 0.5899568 -0.241463 0.4090531 -0.7845503 
-0.1827156 0.4151023 0.370607 0.4957318 0.8365425 0.224561 
-0.3601598 0.4830827 0.4979094 -0.8306171 0.2855063 0.4756961 
-0.4283127 0.3831884 -0.09387395 -0.8615435 -0.2157731 -0.4558685 
-0.1323146 0.2149166 0.5247869 -0.5648597 -0.8134116 -0.1261409 
-0.2369423 0.2780454 0.4447806 -0.5117921 -0.8588977 -0.01273334 
0.07591021 0.2644444 0.5115023 -0.07888915 0.8197803 -0.5667521 
-0.03463954 0.2820012 -0.498282 0.1468787 0.9886898 -0.02849125 
-0.1931329 0.5593745 0.5034535 0.3570383 0.8979787 -0.1806993 
-0.4721842 0.1734347 0.5932842 0.02370934 0.9946789 -0.09485298 
-0.3275757 0.2828372 0.2540432 -0.8747807 0.1604467 0.4544689 
-0.1885772 0.416405 0.3769386 0.4471178 0.8516048 0.2670259 
0.00297983 0.3144118 0.6159623 -0.224229 -0.3565626 0.8789516 
0.1236186 0.2479855 -0.3542894 0.200443 0.9796867 0.005923106 
-0.05912321 0.2854141 0.6176603 0.000299962 -0.02677116 0.9993056 
-0.3434305 0.2192695 0.7784367 -0.1126561 0.9740247 -0.1947723 
-0.5581339 0.2247131 -0.518382 0.02307783 0.9996401 0.01223883 
-0.09544972 0.2488575 0.8250474 -0.03884621 0.9986736 -0.03354773 
-0.5024519 0.2033187 -0.2925081 0.01334775 0.9902073 0.1388399 
-0.08935472 0.4676836 0.6828716 -0.08376779 0.6347106 0.7657694 
-0.05216979 0.4947422 0.5970697 0.4630355 0.775382 -0.4206921 
-0.1356919 0.198728 0.4258507 -0.6254887 -0.004468802 0.7363939 
-0.1434626 0.3455478 0.494675 0.5552139 0.815071 0.1628013 
-0.5232329 0.1970017 0.7534633 -0.1184118 0.9815749 -0.1489948 
0.1987118 0.221115 -0.1393221 0.1264783 0.9832355 0.1299332 
0.06540656 0.2599893 -0.3745809 0.1957249 0.9803578 0.02378599 
0.052929 0.2499753 0.7132633 0.006126096 0.9997055 -0.02300464 
-0.2886595 0.4119457 -0.04999856 0.3650845 0.6684547 0.612542 
-0.4224091 0.4539321 0.3560987 -0.9362782 -0.10223 0.334934 
0.3517609 0.1591792 0.2162956 -0.01188704 0.9986447 -0.039659 
-0.3988789 0.1915299 0.1633553 -0.3815885 0.9228954 -0.02579832 
0.003052281 0.3312749 0.6290361 -0.2399531 -0.7542626 0.5945282 
-0.4917087 0.2209089 -0.447517 -0.02372689 0.996423 0.08089922 
-0.04371659 0.2446974 0.329914 0.7818967 0.6141239 0.09816054 
0.004754145 0.3576607 0.6797699 -0.04954914 -0.8199073 0.5536769 
-0.348336 0.2163516 0.2644583 -0.774533 0.5674446 0.2791573 
0.07900058 0.2562853 -0.3270302 0.16565 0.985381 0.03663096 
-0.1459727 0.2781292 -0.4913635 -0.1046579 0.993214 0.02105671 
0.2199843 0.2224724 0.3459236 0.934265 0.3470562 -0.05808745 
-0.1552334 0.2722834 -0.5727742 -0.1099936 0.9807973 -0.1607582 
0.1073639 0.3810897 0.6548663 0.719348 0.1306408 0.6780213 
-0.001613692 0.4041612 0.7070145 0.1667134 0.08204385 0.9662423 
-0.1536891 0.2778139 0.5942346 -0.4002927 -0.3278106 0.8544728 
-0.4621434 0.4590814 0.01512057 -0.9556623 0.1976968 -0.21622 
-0.188487 0.2678093 -0.5713174 -0.1632137 0.9755983 -0.1465716 
-0.00169292 0.2670095 -0.05689306 -0.547033 0.7679023 -0.1807176 
-0.2476934 0.258078 -0.4853896 -0.2769269 0.9510406 0.1352747 
0.2797266 0.2163872 -0.3526312 0.2007986 0.9794803 0.01691395 
0.05833069 0.2490177 0.6268153 0.03230525 0.8239851 0.514138 
-0.2197981 0.4767824 0.6396587 -0.4276564 0.4115952 0.8033155 
-0.2641452 0.2531685 -0.2729845 -0.862345 -0.3799567 -0.3325478 
-0.0701806 0.2695563 -0.6173509 -0.004523565 0.987493 -0.1572946 
0.1905566 0.2875568 0.3705254 0.6069434 0.6776386 -0.3895745 
-0.3405461 0.5222481 0.06647947 0.8070537 0.578076 -0.0765328 
-0.5206859 0.1727272 0.5687502 0.01171775 0.9991072 -0.035121 
-0.556405 0.1764686 0.4429594 -0.002189609 0.9992238 0.03928117 
-0.7940313 0.1784977 0.1017369 -0.0174886 0.999807 -0.008569939 
-0.3645866 0.20857 -0.3382066 0.01495123 0.9693316 0.2450668 
-0.007604884 0.09175505 0.03017247 -0.8950094 0.0733653 -0.4379419 
-0.2469669 0.2185882 -0.3486674 -0.4863512 0.8498663 0.1792962 
-0.3847072 0.1914974 0.2885225 -0.1738603 0.9811429 0.08060856 
0.09651068 0.2490836 -0.01243157 0.654488 0.7490779 -0.07656544 
0.1998875 0.2477136 0.490874 0.9319729 -0.1755289 0.3141949 
-0.3385442 0.5158379 -0.06858551 0.2861755 0.9440063 0.09698889 
-0.318601 0.196136 -0.1049841 -0.8420309 0.4165946 -0.3313062 
-0.1999197 0.2414571 -0.7442119 -0.1237319 0.9838288 -0.129294 
-0.5200309 0.1835652 0.2854313 -0.01026427 0.9998052 0.01666756 
-0.5046765 0.1722891 0.536941 0.01518011 0.9995913 0.02241862 
-0.2433661 0.3563765 -0.4468404 -0.611397 -0.3242764 -0.719126 
0.002847949 0.1791758 0.02021335 -0.8266565 -0.08548771 0.5430061 
-0.3589085 0.2222378 0.2145903 -0.87583 0.4430262 0.1805435 
-0.4351245 0.4651664 -0.06623717 -0.8659112 0.3608848 -0.3448334 
-0.7614688 0.1769642 0.2676616 -0.09077353 0.9937375 0.06473397 
-0.5830218 0.1749407 0.4842127 -0.007355302 0.999427 0.03257312 
-0.04801663 0.2415555 0.6629366 -0.09964936 0.9841606 -0.1449248 
-0.7035241 0.1817015 0.1964996 -0.01846055 0.99963 -0.0193049 
-0.07063564 0.2413789 0.6755399 -0.07388684 0.9884956 -0.1316388 
-0.4396865 0.4620106 -0.05695714 -0.8829373 0.3472913 -0.3116987 
-0.3874549 0.3919254 -0.161838 -0.7613629 -0.1999578 -0.6105409 
0.01367459 0.2516741 0.8109573 -0.01838317 0.9996222 -0.020172 
-0.2842181 0.3549088 -0.4059729 -0.8645859 -0.1755616 -0.4697845 
-0.3962154 0.3371421 0.1169599 -0.6365972 -0.6231791 0.452539 
0.338318 0.1699364 0.03922678 0.159525 0.9684699 0.1912142 
-0.1067284 0.2966869 -0.106064 0.9794097 0.04569682 0.1938842 
-0.1167678 0.3238988 -0.1643014 0.8644375 0.4868636 -0.1240135 
0.1692243 0.1950062 0.07262763 0.3710459 0.9275168 0.04152736 
0.2901388 0.214547 -0.3871742 0.1961173 0.980559 0.005889975 
-0.5610868 0.18778 -0.1776558 -0.01384924 0.9939197 0.108897 
-0.2230868 0.3820787 0.2452343 0.7408568 -0.08142887 -0.6655272 
-0.1508962 0.3819478 0.3995656 0.6317693 0.7396098 0.2277687 
0.04313163 0.2628419 -0.3476975 0.1412241 0.9867309 0.07733852 
-0.2594568 0.4178736 0.05313519 0.5659397 0.7194319 -0.3632469 
0.01549248 0.165016 0.05551261 -0.9713548 0.12337 -0.09991278 
-0.05986227 0.0755562 -0.01214996 0.7708949 0.6090319 0.1855729 
-0.2939869 0.4342051 -0.05678033 0.5270815 0.2069604 0.8142374 
-0.4547449 0.2247743 -0.5496458 -0.06137706 0.9976242 -0.02917315 
-0.3927342 0.4653717 -0.1499545 -0.8029219 0.2689302 -0.5204498 
-0.2067101 0.4063806 0.4266464 0.3719984 0.871092 0.3194297 
0.04973012 0.2763616 -0.04218581 0.271871 0.9129445 -0.1573607 
-0.3260752 0.5131831 -0.2086889 -0.6736996 0.6815112 -0.2640577 
-0.3094839 0.240146 -0.641109 -0.1428867 0.9804775 -0.1350194 
0.07451263 0.1641293 0.4073956 -0.001514159 0.8531644 -0.4732241 
-0.2264228 0.5192373 -0.1784436 0.6130303 0.7455333 0.2261363 
-0.4065532 0.5221997 -0.01175857 -0.4013937 0.8845901 -0.2222093 
0.2265937 0.2007616 0.2936505 0.8166325 0.567628 -0.104141 
-0.4924804 0.1751817 0.07255816 0.07319912 0.9957578 -0.0548314 
0.05561674 0.2229111 0.1568769 -0.07041103 0.9898202 -0.1142667 
-0.1702092 0.2406137 0.7357779 -0.0970189 0.9928926 -0.06861605 
-0.3472064 0.2134233 -0.3569629 -0.01628904 0.9697732 0.2431979 
0.09510012 0.2376613 -0.1899951 0.008025516 0.9849156 0.1709731 
-0.4136484 0.5300664 0.2851807 -0.605996 0.7653389 0.2124883 
-0.2677355 0.4633629 0.2838076 0.1467005 0.9768223 0.1448228 
-0.201682 0.2674491 0.2747479 0.1674284 -0.1509964 -0.9742244 
0.1664775 0.2234299 0.6062994 0.2586382 0.9294294 -0.2588144 
0.06867115 0.2911862 0.5491233 -0.2930761 0.5232688 -0.7859305 
-0.3974099 0.295786 0.01591979 -0.7552598 -0.6498712 -0.05817918 
-0.339181 0.2801922 0.2309754 -0.9064926 0.08822034 0.4125287 
0.2886164 0.157164 0.2050892 0.1036465 0.9933225 0.004861911 
-0.1220402 0.3910162 0.5860951 0.1122004 -0.6216621 -0.775128 
-0.3110443 0.3902199 0.5540914 -0.728044 -0.4574208 0.5088211 
-0.09337399 0.1358899 0.09781367 0.1457937 0.6653174 -0.7284784 
-0.3590965 0.431457 -0.2057098 -0.8047352 0.01142806 -0.5928099 
-0.4557702 0.1716644 0.4862226 0.07983084 0.9964411 0.02548429 
-0.4797318 0.1828098 0.2264621 -0.001980489 0.9983296 -0.05613002 
0.2080165 0.2502978 0.4662016 0.9524555 -0.163587 0.2442276 
-0.3686751 0.2000163 -0.3040105 0.04729299 0.9691445 0.2417271 
-0.3172157 0.2040491 0.3373868 -0.4818009 0.7245581 0.4858317 
-0.4531648 0.203365 -0.3007705 0.03460145 0.9823502 0.1834817 
0.3145618 0.1573634 0.1987052 -0.02382248 0.9995641 0.008316589 
-0.1912855 0.2701491 0.007653882 0.3223823 -0.432386 0.8378604 
-0.05430701 0.1443298 -0.1234417 0.2672811 0.6092768 0.7417516 
-0.2384567 0.2792936 0.460736 -0.525139 -0.8501377 0.035478 
-0.3955276 0.3636141 0.2055891 -0.4742507 -0.8778282 0.05938382 
0.02711601 0.2452609 0.6385295 -0.06874996 0.9709193 0.1288295 
-0.5000457 0.1865145 -0.1795975 0.07581608 0.9902616 0.1157612 
0.01951851 0.0452651 0.007472524 -0.5195266 -0.28371 -0.8023687 
-0.3227929 0.1981798 0.3412368 -0.4057009 0.8014628 0.4338328 
-0.4124203 0.2182149 -0.3924262 -0.03155072 0.9907285 0.1318311 
-0.1517328 0.3472761 0.2962228 0.5568541 0.3204052 -0.7643717 
-0.4551609 0.4368521 0.2059025 -0.9041905 -0.3764836 0.1967421 
-0.1764193 0.4836962 -0.2679035 0.8507329 0.4807134 0.1986296 
-0.4137335 0.4070879 0.3277134 -0.8542816 -0.461992 0.2378134 
0.03955506 0.2507002 0.7467444 -0.001187567 0.9998644 -0.01624415 
0.07872509 0.3628799 0.5301619 -0.5536654 -0.0224091 -0.8271094 
-0.7074414 0.1817468 0.2051226 -0.02429153 0.9995596 -0.01475827 
0.3372792 0.2014965 -0.2727305 0.216881 0.975158 0.04498225 
-0.2736284 0.2145893 -0.3567177 -0.09049062 0.9473476 0.3057969 
-0.4441535 0.1724627 -0.0939426 0.1778377 0.982536 0.05312908 
-0.4199992 0.1899352 0.6841004 -0.03392426 0.9757529 -0.2160359 
0.04013271 0.2675101 -0.5242298 0.1939568 0.9804723 -0.03240567 
-0.5567769 0.1825248 0.314722 -0.009852958 0.99934 0.0349201 
-0.4113523 0.1643576 -0.05519898 0.2056087 0.9780006 0.03381623 
-0.3980026 0.1821095 0.3462823 -0.06775909 0.9761748 0.2056615 
-0.1170497 0.1587785 0.1276277 -0.1035436 0.897986 -0.424772 
0.2064556 0.2081057 0.5529243 0.04712221 0.990311 -0.1280792 
0.01289154 0.1577872 0.04380364 -0.9214679 0.2613018 0.2104867 
0.03400512 0.2688267 0.5145826 0.1500692 0.8325138 -0.5319074 
-0.4063426 0.5421686 0.08121354 -0.257888 0.9559491 -0.1341192 
-0.4121176 0.5422233 0.2198009 -0.5194259 0.8477273 0.08996832 
-0.1267292 0.1271154 -0.01993563 0.4240898 0.8541026 0.3009037 
-0.6044751 0.1921497 -0.2206055 -0.02806643 0.989686 0.140449 
-0.2638473 0.2525848 0.2382768 0.8093622 0.04862311 -0.5820345 
0.03771287 0.1845729 0.4272794 0.2769515 0.7265636 -0.6196244 
0.2758235 0.195867 -0.03861497 0.1445641 0.9726616 0.1788862 
-0.360802 0.2255096 -0.6951199 -0.1280238 0.9849888 -0.1157785 
-0.1071859 0.1750201 -0.1036025 0.6163522 0.4031804 0.6759786 
-0.4523329 0.5108511 0.1482775 -0.8158817 0.5724305 0.007480937 
0.07602675 0.257564 -0.5738117 0.1976359 0.9776778 -0.07125572 
-0.2781332 0.3342978 0.1372524 0.9401919 -0.3320666 0.05856296 
0.003461181 0.1806383 0.08311623 -0.8474206 0.2900174 -0.4386988 
-0.5591922 0.1779083 0.6485484 -0.06596069 0.9924189 -0.1032449 
0.04820526 0.1616829 0.2575797 -0.1839759 0.9289349 0.1961662 
-0.06204104 0.08629031 -0.03434112 0.7022616 0.6574568 0.2729311 
-0.7087356 0.1766113 0.3388411 -0.1041664 0.9904848 0.08946332 
-0.3072338 0.2290812 -0.4102384 -0.09605859 0.9617907 0.2559007 
0.2410706 0.2002029 -0.04055902 0.08587153 0.9756424 0.2007944 
-0.07630565 0.1735151 0.1330375 -0.2925555 0.7813632 -0.5418949 
-0.2186826 0.1684989 0.4213938 -0.1185415 0.7575176 0.6379999 
-0.5821257 0.2156168 -0.4080858 -0.009447543 0.9931549 0.1163926 
-0.3520769 0.158177 -0.1412371 0.1265871 0.9802027 0.1267383 
-0.1338388 0.3333055 -0.4712227 0.4886603 0.1202146 -0.861303 
-0.3712329 0.2759693 0.1317344 -0.9672959 -0.151817 0.2024046 
-0.173338 0.2722525 -0.5578158 -0.146959 0.9807694 -0.1269305 
-0.4935652 0.2226321 -0.4723902 -0.01871691 0.9980211 0.05968977 
-0.1862598 0.3797825 0.5648382 0.6096321 0.190413 -0.6739629 
-0.01165563 0.2471037 -0.2700129 -0.1021243 0.964185 0.2442394 
-0.2903973 0.4591368 0.3080884 0.05832507 0.9707991 0.2315088 
-0.2150801 0.426535 0.6560362 -0.5196907 0.03367086 0.8507926 
0.2494456 0.2224503 -0.4224635 0.1954257 0.9806519 -0.01137883 
-0.05192435 0.08822476 0.07190692 0.3734577 0.640169 -0.670103 
0.05512667 0.2639688 -0.4302817 0.2176588 0.97539 0.03506345 
-0.3493654 0.2340085 0.9016946 -0.112449 0.9911001 -0.07118495 
-0.1481104 0.386544 -0.2296897 0.9693145 0.2404251 -0.0429326 
-0.5294972 0.1827349 0.6712852 -0.06621703 0.9865047 -0.1490595 
0.1436839 0.2430798 0.6665326 0.1965484 0.96878 -0.1484691 
-0.0675405 0.1563454 0.2112601 -0.1228236 0.6088891 0.7745397 
-0.2778445 0.3358603 0.1475379 0.9466445 -0.3187144 -0.01014838 
-0.03451114 0.3517569 0.6013622 -0.2850178 -0.1747929 -0.894161 
-0.1771191 0.2287476 0.3944872 -0.6107325 -0.1010261 0.7621007 
-0.4776846 0.1841772 0.2871956 -0.02973272 0.9993761 0.01796344 
0.002205232 0.2524647 0.8800045 -0.01547615 0.9997559 -0.01519911 
0.2985359 0.2035738 0.5489583 0.06201908 0.9865381 -0.1512758 
-0.3699002 0.3498803 0.1917082 -0.5467817 -0.8137859 0.1430006 
-0.3168825 0.4221594 0.0337892 0.2669396 0.8591235 -0.3512659 
-0.4399219 0.5212324 0.1994265 -0.7505355 0.6497144 0.1174463 
-0.1261759 0.4050175 -0.3846317 0.8983408 0.4246257 -0.08797421 
0.03199672 0.3344219 0.5704278 -0.4890168 -0.1503065 -0.820015 
-0.7669036 0.1794461 0.1398321 -0.01693968 0.9996794 -0.0187405 
-0.4888839 0.2111021 0.8251846 -0.1333732 0.9838673 -0.1190425 
-0.02172181 0.01638365 -0.002003232 0.5980633 0.5847316 0.4901323 
-0.1090755 0.1322346 -0.055502 0.5123866 0.7564826 0.4059828 
-0.2079566 0.1649864 0.1265136 0.2935366 0.9014308 -0.3134709 
-0.1203393 0.3359516 0.4546186 0.6713056 0.7222639 0.1603131 
-0.3006307 0.454483 -0.054375 0.6589001 0.124264 0.7348752 
-0.2496116 0.1396042 0.4873798 0.0748978 0.9877778 0.1222081 
-0.4359704 0.3675204 0.09960745 -0.7376262 -0.6023845 0.3040399 
0.3046348 0.2112918 -0.3619005 0.2052833 0.9785412 0.01750124 
-0.6379563 0.2187474 -0.4333566 0.003771903 0.9913418 0.1312351 
0.06985743 0.2639467 0.01813138 0.3078671 0.9055554 0.2789665 
-0.2089041 0.1625554 -0.01079717 0.5535046 0.696301 0.4480923 
-0.1614382 0.2000168 0.2838416 0.02042504 -0.05350529 -0.9982517 
-0.4439979 0.1939024 -0.2564613 0.06938536 0.9772549 0.2002825 
-0.1752265 0.1631127 0.278525 0.3541154 0.4606758 -0.7862639 
-0.2376667 0.1459996 0.4585613 0.01307806 0.9361159 0.3321991 
-0.5998314 0.1757195 0.6590927 -0.07908015 0.9936701 -0.07871308 
0.04305709 0.2197557 0.2165334 -0.4757336 0.820421 0.2895305 
0.03103372 0.249319 0.6845987 -0.02716381 0.9982134 -0.05045532 
0.2388585 0.2086514 -0.08661676 0.1171454 0.981977 0.1455022 
-0.2577477 0.1807896 0.4001208 -0.142574 0.755152 0.6375868 
-0.3235529 0.2262539 -0.07271338 -0.8939177 -0.1990615 -0.3641708 
-0.5167203 0.1942874 -0.2289853 0.03304921 0.9878502 0.1513976 
-0.2595729 0.2924117 0.4615453 -0.5234284 -0.8497025 0.06099652 
-0.2641654 0.4648275 0.262197 0.2551544 0.962331 0.04067022 
-0.3119745 0.1901454 -0.2784505 0.05496242 0.9583901 0.2795682 
0.3254912 0.1882583 0.4615873 0.03489456 0.9864882 -0.1598411 
-0.5343215 0.1795389 0.139214 0.01543241 0.9988778 -0.04447749 
-0.376 0.1658596 -0.1614611 0.1673094 0.9678293 0.1850653 
-0.1934169 0.5441684 0.5791656 -0.03966141 0.8873467 0.4494599 
0.1670375 0.2370206 0.6589231 0.1739188 0.9656284 -0.1916633 
0.08705356 0.1538856 0.320648 0.1631201 0.9693284 0.07069751 
0.03345632 0.2052185 0.4451791 0.2370742 0.6522785 -0.7147254 
-0.1848283 0.2487353 0.4176196 -0.5633682 -0.8224012 0.03620043 
-0.2523099 0.2690716 0.0326608 0.5697724 -0.3533021 0.7383859 
-0.7278992 0.1827477 -0.1757133 -0.02542926 0.9950174 0.0950852 
-0.2944785 0.4905103 -0.3455884 -0.719129 0.5278361 -0.4163491 
-0.1365357 0.4195647 -0.3240458 0.9534718 0.1913162 0.215371 
-0.4102947 0.4406611 0.3836457 -0.9182945 -0.2317583 0.3146456 
-0.07197791 0.2772078 0.6163029 -0.09826271 -0.06215236 0.9922161 
0.1206722 0.2376106 0.2072658 0.09090748 0.9250253 -0.3639445 
-0.134305 0.4160517 -0.3316909 0.9552715 0.1995319 0.1925401 
0.2173103 0.2419629 0.400626 0.9921164 0.08570836 0.03492842 
-0.468214 0.2190484 -0.6433076 -0.05636299 0.9962523 -0.06462194 
-0.1436493 0.5264258 0.6084787 0.1092364 0.8687315 0.4671763 
-0.1746406 0.4640546 -0.2395884 0.8956682 0.3907808 0.2117233 
-0.3598545 0.3794117 -0.1895949 -0.7546257 -0.294345 -0.5854717 
-0.4461369 0.4825986 -0.01077806 -0.8509814 0.4301415 -0.2945331 
0.1187244 0.1954041 0.4237584 -0.6101955 0.5280663 -0.5481513 
-0.372993 0.5497344 0.1333649 0.1687572 0.9794199 -0.1007276 
-0.5585854 0.1773137 0.4215683 -0.002977873 0.9989784 0.0450007 
-0.2775101 0.2397921 -0.6759835 -0.1375342 0.9807617 -0.1385261 
-0.2130416 0.2732332 -0.4781228 -0.5106917 0.8106444 -0.2727321 
0.1702801 0.3464284 0.4550209 0.2890154 0.8502936 -0.4026036 
-0.1434947 0.2392776 -0.0615786 0.7441384 -0.4676617 0.475964 
-0.463743 0.2202941 -0.4299762 -0.03519437 0.9952611 0.09061445 
-0.3028177 0.2719942 -0.1953356 -0.8520398 -0.4148289 -0.3190323 
-0.2317077 0.2774826 0.4895317 -0.54333 -0.831017 0.1165909 
-0.2943227 0.4050594 -0.009953544 0.1925477 0.9725502 -0.1142676 
-0.3265032 0.4478294 0.08719075 0.2053039 0.8835588 -0.3841261 
0.0515237 0.4567803 0.6000945 0.4149165 0.8757203 -0.2157282 
-0.2774047 0.3020052 0.4132718 -0.4708663 -0.8814275 -0.03446478 
-0.200575 0.2487977 0.9172654 -0.04957131 0.9967659 -0.06286242 
-0.2857585 0.5298061 -0.143029 0.03387729 0.9588445 0.275042 
-0.2409711 0.4558573 0.2734717 0.4933935 0.8575351 -0.02446581 
0.09776607 0.406254 0.5472147 0.1492721 0.7599658 -0.6222125 
-0.0878873 0.5124047 0.5829793 0.5565643 0.7549031 -0.2754605 
-0.483317 0.1924214 -0.230526 0.08657823 0.9824476 0.1650564 
-0.006536574 0.2108928 0.3042305 0.6143067 0.7695249 -0.006370686 
0.1902281 0.2214214 0.2368197 0.5988147 0.7226431 -0.3405726 
0.08533034 0.1703982 0.2690412 -0.5340521 0.1750605 0.7137247 
-0.09229408 0.260855 -0.1866697 0.9032481 0.4238998 -0.06147494 
-0.2082392 0.5590742 0.4784043 0.4224775 0.8231441 -0.3227661 
-0.1903884 0.3429231 0.2737828 0.4784953 0.04773358 -0.8759269 
-0.3877164 0.197067 0.7070403 -0.07529432 0.9673237 -0.2418413 
-0.35874 0.2612247 0.1758566 -0.9674802 0.001614666 0.2487578 
-0.4391052 0.1758597 0.3881921 0.06808151 0.9926469 0.09983307 
0.1066516 0.1551982 0.2873766 -0.5363474 0.599638 0.5117311 
-0.10945 0.4678786 0.5417656 0.6015675 -0.1722216 -0.772584 
0.04629213 0.4536612 0.5875733 0.3127187 0.8301276 -0.4164616 
-0.5260341 0.1978285 0.7616485 -0.1289583 0.9818681 -0.1384704 
0.3374688 0.1730063 0.02448645 0.167045 0.9665846 0.19432 
-0.05500304 0.316156 0.6180006 0.1088769 -0.1177869 0.9840328 
-0.4221605 0.5396934 0.1193928 -0.509968 0.8544767 -0.03910794 
0.03825889 0.2660543 0.02203692 -0.114176 0.8696299 0.4663364 
-0.1146987 0.3602562 -0.4390272 0.7902429 0.4683041 -0.3900211 
-0.2508514 0.1840022 0.6285725 -0.2123228 0.8006545 -0.5579863 
0.1627562 0.2400921 -0.4385153 0.216657 0.9762369 0.002169344 
-0.3763331 0.3219334 0.136489 -0.9034394 -0.273456 0.3188071 
-0.2442251 0.2402076 0.8389034 -0.09490393 0.992551 -0.07615148 
0.2193244 0.2133959 -0.1040865 0.1113152 0.9815189 0.1513689 
-0.1700484 0.1961026 0.4094659 -0.3325661 0.4282534 0.8213244 
-0.03738372 0.2520227 0.8887312 -0.01879704 0.9995376 -0.02360881 
-0.1658272 0.2752764 0.5867699 -0.4636573 -0.3957274 0.7920361 
0.1905801 0.2386272 0.5096969 0.9079995 -0.1705085 0.3798175 
-0.4714966 0.1722426 0.05510936 0.1003873 0.9923378 -0.07077266 
-0.2633243 0.1400431 0.5246981 0.1156988 0.9888202 -0.06647404 
-0.6476344 0.1704591 0.5614544 -0.06937367 0.9975309 0.007655264 
-0.7024302 0.1795402 -0.02975601 -0.01043445 0.9999375 0.003352783 
-0.1200214 0.1264676 -0.02782148 0.4439957 0.8427923 0.3037398 
-0.3446063 0.2254726 0.8145412 -0.09411094 0.9850746 -0.1433895 
0.357182 0.1640906 0.2783532 -0.01209328 0.9949383 -0.09888501 
0.0006171295 0.248824 0.7088773 -0.06085991 0.9971053 -0.04351692 
-0.3594984 0.2381191 -0.5193717 -0.1998334 0.9791998 0.0345281 
-0.222795 0.1631314 0.593114 -0.1418781 0.7978359 -0.5817213 
-0.3695595 0.2217049 0.1325674 -0.9443005 0.3179766 0.06176118 
-0.07898523 0.480354 0.6707754 0.005657712 0.7483512 0.6559927 
-1.900521e-06 0.2676809 0.4975705 0.2953997 0.8023482 -0.5185297 
-0.3511427 0.3776405 0.4600117 -0.791632 -0.5030752 0.3466185 
-0.07802893 0.4090487 0.5741286 0.04284598 -0.4701544 -0.8678608 
-0.2400915 0.2354366 0.007282775 0.5951495 -0.33955 0.7254109 
-0.2466306 0.2538536 -0.603774 -0.1484974 0.9818803 -0.1176748 
0.1235393 0.3509048 0.6368669 0.5527273 -0.2382573 0.7605475 
-0.4440789 0.2255233 -0.498142 -0.06597579 0.9975206 0.02308157 
-0.3553814 0.2179299 -0.3786932 -0.04309519 0.9792781 0.1975676 
0.2716269 0.198873 -0.05107261 0.1479524 0.9745725 0.1668212 
-0.3040442 0.388299 -0.3151053 -0.9866889 -0.1536575 -0.04826011 
-0.04142063 0.08137188 -0.05920278 0.4387639 0.7504661 0.4925236 
0.01327711 0.2732298 -0.5078132 0.1871604 0.9820266 -0.02422448 
-0.1752146 0.2489473 0.8995148 -0.04857681 0.9972718 -0.05457725 
-0.3571578 0.210053 0.2536007 -0.7161332 0.6592387 0.2106337 
-0.1868332 0.3723909 0.6486937 -0.2429613 -0.6595667 0.7077844 
-0.2149318 0.331042 -0.4563605 -0.5480738 -0.3083768 -0.7751077 
-0.3141285 0.2479369 -0.5288807 -0.1933072 0.9808896 0.01973306 
-0.1353321 0.3736871 0.6764128 -0.3174369 -0.7446404 0.5703876 
0.115016 0.2582474 0.2908658 -0.4527612 0.8512349 -0.04288622 
0.08763552 0.2549926 -0.3367862 0.1828896 0.9828361 0.02226816 
-0.1875368 0.4364336 -0.4392118 0.2981348 0.6505598 -0.6937448 
-0.1176101 0.3208807 -0.1793077 0.8763458 0.4562563 -0.1539435 
-0.2890424 0.5333794 -0.1592956 -0.08061092 0.9821866 0.1639238 
-0.2408208 0.3428613 0.5953349 -0.5448575 -0.5684313 0.6144902 
-0.6962852 0.1733967 0.3868067 -0.1136445 0.9893616 0.09061086 
-0.4187635 0.5006916 -0.05416875 -0.6936092 0.6546484 -0.2906598 
-0.06383933 0.2676205 -0.3296609 0.4434657 0.8691916 0.2047258 
-0.6020308 0.1833746 0.2889454 3.852218e-05 0.9992712 0.03787607 
-0.08072312 0.1661101 0.5290132 -0.8741907 0.1610386 -0.3360597 
-0.2000871 0.1446753 0.5578679 -0.06081382 0.9251735 -0.364675 
-0.03352009 0.1201435 0.2575856 -0.4999425 0.6140641 -0.5119147 
-0.6218203 0.1807516 0.1156995 0.004970925 0.9998771 -0.01328556 
-0.1742123 0.1540308 0.4461012 -0.1015629 0.8206562 0.5496281 
-0.199753 0.4225779 0.2915763 0.748586 0.5719683 -0.3326131 
-0.7340823 0.180153 -0.1399559 -0.01706946 0.9990609 0.03883985 
-0.005413696 0.2314371 -0.1609431 -0.5396938 0.8318157 -0.00411103 
-0.284976 0.2558322 -0.2246724 -0.8688869 -0.3599875 -0.3395142 
-0.3038946 0.5232266 0.3079891 0.9276252 0.03940575 -0.3325222 
-0.05666966 0.2845728 -0.4622406 0.05091897 0.9980869 0.02459162 
-0.3221149 0.5160677 0.240171 0.9690311 -0.1103224 -0.1929689 
-0.3203739 0.4658257 0.3449126 0.8512899 0.1082308 -0.1846834 
-0.09532222 0.3152648 0.4148588 0.8002086 0.5934002 0.07815692 
0.1902313 0.2344765 -0.3734475 0.1989647 0.9800017 0.002774155 
-0.3787246 0.5434835 0.07526173 0.1069873 0.9787189 -0.1249625 
-0.05680055 0.3301589 0.5991889 0.0889897 0.67125 -0.6936681 
-0.4953879 0.2114548 -0.3559408 -0.01912083 0.9930502 0.1160453 
0.1362461 0.2298756 0.4188122 -0.9441087 0.1838425 -0.2246071 
-0.02416304 0.2143377 -0.07889 -0.9772332 0.1218795 -0.1472747 
0.1353983 0.2125812 0.05525286 0.5222704 0.8481752 0.07934997 
0.0724166 0.2530811 -0.272436 0.07695182 0.9859775 0.1451573 
-0.4251663 0.224655 -0.6189197 -0.1228362 0.99034 -0.06328429 
-0.3044125 0.1471575 0.5079769 0.1828535 0.9816316 -0.0005003661 
-0.1553467 0.4885406 0.5024735 0.5909702 -0.2123443 -0.7745571 
-0.3622545 0.4256269 -0.2008106 -0.8070875 -0.03117745 -0.5862776 
0.1595407 0.2097092 0.1683265 0.3636569 0.874178 -0.3199969 
-0.599254 0.1846133 -0.1566286 -0.03573469 0.9958172 0.0830296 
-0.2344626 0.2366619 -0.7460075 -0.1344697 0.9837621 -0.1188363 
-0.1726192 0.461411 0.6684151 -0.3285109 0.3941766 0.8557551 
0.1193019 0.2458854 0.6551028 0.1336299 0.981676 -0.1295885 
-0.7000825 0.1675291 0.4707131 -0.1373649 0.9897939 0.03664166 
-0.1742267 0.2729579 0.580058 -0.5230331 -0.469624 0.7105937 
-0.6589049 0.209141 -0.3592198 -0.01198752 0.9930462 0.1170692 
-0.6952271 0.1797926 -0.06887682 -0.01245522 0.9999025 0.006005624 
-0.3338616 0.4664187 -0.243457 -0.9202811 0.0870061 -0.3778924 
0.1256081 0.2620029 0.2844372 -0.2422975 0.9389013 -0.1806065 
-0.4518755 0.1804972 -0.1768392 0.1432394 0.9814666 0.1259557 
-0.5463409 0.1781659 0.01931605 0.0553312 0.9983827 0.001764343 
-0.7404611 0.1795175 -0.1128315 -0.01426326 0.9998052 0.01331426 
-0.5389476 0.1860778 -0.1608682 0.01331571 0.9951369 0.09705721 
-0.04933453 0.1110967 0.2415846 -0.06999581 0.7960776 0.3921634 
0.3210577 0.2022115 -0.2134172 0.2103375 0.9764124 0.04860433 
-0.5504797 0.1873587 -0.1725248 -0.001330118 0.9944152 0.105122 
-0.2021215 0.55808 0.4837614 0.4459511 0.8192087 -0.3155847 
0.1653544 0.2625468 0.2927694 0.301232 0.8816757 -0.3473146 
-0.09156994 0.400582 0.704949 -0.1864441 -0.1260027 0.9588433 
-0.1625842 0.1577282 -0.04827597 0.3853896 0.7083943 0.5909453 
-0.2754381 0.5244679 0.5660784 -0.5004714 0.6428053 0.5754793 
-0.05572626 0.3441972 0.6301513 -0.04545968 -0.738386 0.6359994 
-0.3041621 0.4681684 0.3928191 0.7791302 -0.5139558 -0.3303265 
-0.1753389 0.3899236 -0.1048318 0.6014898 0.7222283 0.3315215 
0.151453 0.2249422 -0.1348393 0.07699896 0.980859 0.1783957 
-0.2827676 0.4797471 0.5933453 -0.6276159 0.3201029 0.7073125 
0.3515605 0.19167 -0.1391989 0.2011568 0.976571 0.07629983 
-0.09831563 0.2521661 -0.1365851 0.930081 0.07628995 0.357541 
-0.04182367 0.28103 -0.4229057 0.05695358 0.9876333 0.1381487 
-0.4340302 0.531088 0.1257424 -0.6534343 0.7551015 -0.003481463 
-0.177093 0.3829699 0.4495403 0.4867059 0.8210106 0.297188 
-0.2953947 0.2517982 -0.1893086 -0.8788238 -0.3854245 -0.278367 
-0.3421494 0.181662 0.3673728 -0.1469321 0.9193865 0.3639176 
-0.5704186 0.1793792 0.6697536 -0.08796262 0.989458 -0.1140955 
-0.230666 0.511148 -0.1517544 0.6257627 0.6570021 0.4024716 
-0.4225229 0.5098882 0.3146058 -0.7823801 0.5459697 0.2946085 
-0.2796093 0.2321879 0.1566202 0.8983101 0.4151938 -0.1226626 
0.01304605 0.2404037 -0.2273556 -0.1023551 0.9779419 0.1811934 
-0.3725874 0.5318016 0.006899987 0.1085066 0.9705016 -0.1898578 
0.1910352 0.2285913 -0.1986081 0.1740102 0.9814237 0.07979397 
-0.4259177 0.331646 -0.03044907 -0.7311369 -0.640183 -0.2338994 
-0.4584219 0.1723679 -0.04776471 0.1402537 0.9883481 0.05877254 
-0.04550638 0.3811933 0.5867031 -0.2722462 -0.5398355 -0.7922758 
-0.1452671 0.5389349 0.5816952 0.223281 0.922426 0.2813411 
-0.1554124 0.3487132 0.5243664 0.4945129 0.8665612 0.05049504 
-0.465241 0.1753694 0.1117484 0.0563105 0.9966469 -0.05916672 
0.00898401 0.2383457 0.4660066 0.3300703 0.6861271 -0.6463234 
-0.2886267 0.2904529 0.1249013 0.9887366 -0.1432728 0.04283994 
-0.2716456 0.2693589 0.3311543 -0.5676237 0.3883713 0.7254066 
-0.2831471 0.3064072 0.3870874 -0.4405616 -0.8959809 -0.05565218 
-0.445894 0.18175 0.3351398 -0.01542394 0.9944437 0.1034539 
-0.07351202 0.0875443 0.05195802 0.5460696 0.7796576 -0.2945068 
-0.3697364 0.351598 0.2155308 -0.4474685 -0.8938908 0.02068828 
0.014113 0.1558914 0.2560513 -0.2246965 0.6049721 -0.7290137 
-0.4572349 0.3810921 0.016155 -0.9670948 -0.2484144 -0.04862679 
-0.2825527 0.5330139 -0.2637889 -0.3660398 0.915989 -0.1559127 
-0.3687773 0.1878853 -0.2543831 0.07982033 0.9661971 0.2447252 
-0.3227976 0.5452904 0.2825156 0.6445034 0.7134033 -0.1851862 
-0.4515846 0.1724847 0.08094467 0.06639554 0.9930948 -0.09530675 
-0.4181348 0.3635065 0.1284399 -0.6112849 -0.7236544 0.3153034 
0.1558802 0.2417398 -0.5054612 0.2397795 0.9707702 -0.009482901 
-0.437204 0.4767244 0.3121454 -0.9352683 0.1472926 0.3211513 
0.3526319 0.1881419 -0.1009257 0.2054557 0.9744682 0.09047763 
-0.1268375 0.2529688 0.602695 -0.3901355 0.174596 0.9025544 
0.1491415 0.3636924 0.4840683 -0.1298759 0.800557 -0.5293928 
-0.2430363 0.5685574 0.4849231 0.02617098 0.9955427 0.03319393 
0.1759203 0.2090462 -0.0637666 0.0960066 0.9787492 0.1783218 
-0.1411436 0.4188446 -0.30679 0.9439628 0.1484448 0.2901164 
-0.3077242 0.2307858 0.8228664 -0.1258421 0.983719 -0.1279392 
-0.7813931 0.1778114 0.2252755 -0.06542333 0.996446 0.05247141 
-0.1174232 0.3525648 0.3742859 0.7643537 0.6426852 0.03212397 
-0.09284771 0.2659515 -0.637614 -0.03279715 0.9884071 -0.1480335 
0.07611544 0.2600768 -0.4516009 0.2173714 0.975668 0.02862995 
-0.2153675 0.4618497 -0.1286578 0.7483278 0.3998401 0.5277251 
-0.4567169 0.2017299 -0.2913433 0.04219602 0.9816097 0.1858423 
-0.1911855 0.1639248 0.2413807 0.3967884 0.8999739 0.179985 
0.1724192 0.3293697 0.4236868 0.1895171 0.8355621 -0.4364816 
-0.3053761 0.2355751 0.8624531 -0.1099742 0.9891481 -0.09671152 
-0.2311594 0.4358959 0.3600914 0.2359903 0.937052 0.2560328 
-0.2945811 0.3142295 -0.2597408 -0.8884521 -0.305564 -0.3363848 
-0.1217741 0.267361 -0.07749219 0.8665273 -0.2994988 0.3980572 
-0.4660767 0.1716958 -0.02030821 0.1275395 0.9904122 0.05270514 
-0.08159006 0.2579313 -0.2691608 0.4956343 0.8141564 0.2952023 
0.3201025 0.200475 -0.1757298 0.20509 0.9772198 0.05426063 
-0.1375698 0.3488629 0.4643226 0.6241473 0.7506534 0.214828 
-0.4248444 0.3466805 -0.06937489 -0.7579904 -0.5618352 -0.3225162 
-0.3321165 0.2862551 -0.1443538 -0.7711933 -0.5354542 -0.3437687 
0.09652801 0.2344825 -0.06383143 0.5815082 0.7681408 -0.2504157 
0.1588035 0.2062837 -0.02389145 0.2876569 0.9468574 0.08739419 
-0.03235735 0.2472526 0.719267 -0.05808094 0.9972199 -0.04627759 
0.3582486 0.1694143 0.02410475 0.168248 0.9684356 0.1837277 
0.05229221 0.4572979 0.6151471 0.4641221 0.8713847 -0.009123299 
-0.2701953 0.3015847 0.353633 -0.5032569 -0.8613898 0.02610214 
-0.163645 0.430591 -0.1970167 0.8826836 0.4609974 0.06962433 
0.1593964 0.2484633 0.7676784 0.07203467 0.9961755 -0.04860844 
-0.008280906 0.2497007 -0.278674 -0.1049794 0.9635049 0.2461749 
0.00214701 0.4661075 0.6654214 0.3202369 0.7821316 0.525385 
-0.3057804 0.1625718 0.4170704 -0.01626844 0.9127549 0.3968158 
-0.4036455 0.5215361 -0.02137008 -0.3839607 0.8958259 -0.2192066 
-0.5444328 0.1821696 0.3288202 -0.01101806 0.9991928 0.03853688 
-0.2866571 0.294 0.1629956 0.9859871 -0.119598 -0.1079644 
-0.4439876 0.3992248 0.1580101 -0.8046648 -0.5726793 0.1515622 
0.001981002 0.1526879 0.2574098 -0.3401761 0.4305311 -0.8221646 
-0.1977947 0.5321344 0.5986156 -0.1253696 0.8134056 0.5599866 
-0.220272 0.4289614 0.2597343 0.814526 0.4192228 -0.36312 
-0.01851077 0.3110649 0.6124849 0.04103673 -0.1077736 0.9827437 
0.2345601 0.1895234 0.3379844 0.8418041 0.5338056 0.0551764 
-0.1118343 0.409858 0.7010462 -0.2426876 -0.02942661 0.963061 
0.09829063 0.2558035 -0.4824654 0.2219178 0.9749389 0.01361239 
0.07713863 0.4315079 0.6464275 0.5927845 0.6788095 0.4252436 
-0.2134249 0.4173624 0.4033808 0.3159196 0.8968201 0.3093723 
-0.02021078 0.2100821 -0.1052436 -0.969706 0.1462437 -0.1235051 
-0.7575985 0.1788965 0.06885138 -0.01460632 0.9998888 -0.002714243 
-0.1537775 0.3882541 0.323882 0.728393 0.5814051 -0.3534558 
-0.3347686 0.5093197 -0.003014376 0.7998354 0.5802191 0.02946691 
-0.364457 0.2476496 0.1463247 -0.9867182 -0.01104833 0.1569172 
-0.01900415 0.4205529 0.7070703 0.1226352 0.2696039 0.9518332 
0.1039441 0.3638866 0.6564982 0.5554482 -0.2170114 0.788816 
-0.1460176 0.2064297 0.4186304 -0.6162202 -0.05924623 0.718253 
-0.312245 0.5083916 -0.265456 -0.774495 0.5908965 -0.2101579 
-0.4237892 0.1827182 -0.2105261 0.1032899 0.9737391 0.2024112 
-0.2624311 0.3596795 0.5881321 -0.6428117 -0.504396 0.5763925 
-0.3284816 0.4497909 -0.2536856 -0.9159256 -0.1149587 -0.3766649 
0.2151595 0.2184008 0.2974586 0.8148017 0.5490654 -0.1739937 
0.2110308 0.2138004 -0.1007615 0.09614735 0.9809956 0.1665019 
-0.4416273 0.4462896 -0.06662184 -0.889728 0.2499177 -0.3760054 
-0.1904826 0.1911248 0.4070991 -0.2104986 0.5794727 0.7832314 
-0.3140464 0.1580049 0.4316447 0.06908293 0.9522057 0.2794014 
-0.08155354 0.3596516 0.6671908 -0.07012576 -0.9522623 0.296715 
-0.1459027 0.4789629 0.6650169 -0.1329943 0.6139385 0.7764944 
-0.4723063 0.4463919 0.1014603 -0.9954872 -0.02515329 0.07161929 
-0.2772757 0.23357 0.8119512 -0.1381739 0.9833366 -0.1167145 
-0.1323278 0.1588375 0.5618606 -0.3792038 0.5785363 -0.6954564 
-0.1476261 0.3711622 -0.1177524 0.6759148 0.7263582 0.06786066 
0.2575235 0.2196556 -0.2958656 0.2054378 0.9783173 0.0261191 
-0.1992935 0.546746 0.5736601 -0.05342708 0.8949798 0.4336459 
-0.06126719 0.3002085 0.5145103 0.3757261 0.8860747 -0.2691767 
-0.3532788 0.1949835 -0.02147968 -0.8278396 0.4354528 -0.3525676 
0.1845165 0.2541883 0.5295646 0.8602266 -0.2159279 0.4597683 
0.2181705 0.2117694 0.2890109 0.7971539 0.5784562 -0.1643701 
-0.09939824 0.2732918 -0.2740012 0.6411237 0.7147313 0.2750441 
-0.275466 0.4646269 0.4364215 0.5474381 -0.6301687 -0.5387041 
-0.2856016 0.4066393 -0.04279745 0.2873323 0.8230333 0.430453 
0.02018039 0.2950709 0.6133891 -0.0107763 -0.08451719 0.9887451 
-0.1343337 0.3772555 -0.4509082 0.6597704 0.4767741 -0.5769386 
-0.1000242 0.2594691 -0.133339 0.9431429 0.04236954 0.3260148 
-0.289355 0.3013286 0.3069125 -0.7623962 -0.2477616 0.5532402 
-0.2106962 0.3975599 -0.07406414 0.4167145 0.7528544 0.497299 
0.1337737 0.2158228 0.3654109 -0.9391608 -0.1109187 0.3182397 
0.0953638 0.2418472 -0.04783184 0.6445461 0.7254537 -0.2293733 
-0.2693367 0.2395371 0.8635538 -0.1020301 0.9913831 -0.08144729 
