ply
format ascii 1.0
comment VCGLIB generated
element vertex 1285
property float x
property float y
property float z
element face 0
property list uchar int vertex_indices
end_header
-0.0226668 -0.01787527 -0.004264271 
-0.02252439 -0.01783018 -0.004391804 
-0.02270846 -0.01782232 -0.004245154 
-0.02227522 -0.01795621 -0.004582221 
-0.02243694 -0.01816297 -0.004391481 
-0.02247342 -0.0180078 -0.004391804 
-0.02245173 -0.01814467 -0.004382167 
-0.02256658 -0.01800163 -0.004315173 
-0.02200315 -0.01830764 -0.004782591 
-0.02217689 -0.01847959 -0.004581663 
-0.02219588 -0.01833783 -0.004582221 
-0.02220742 -0.01844289 -0.004556665 
-0.02230245 -0.01832785 -0.004483471 
-0.02159452 -0.01891672 -0.005211178 
-0.02171729 -0.0190176 -0.005055333 
-0.02176872 -0.01891785 -0.004992416 
-0.02178046 -0.01894521 -0.004978338 
-0.02184479 -0.018871 -0.00490416 
-0.02153482 -0.01922397 -0.005303185 
-0.02143566 -0.01914619 -0.005438334 
-0.02144772 -0.0193211 -0.005436596 
-0.02139222 -0.01938253 -0.005527447 
-0.02130039 -0.01939026 -0.005673324 
-0.02136428 -0.01941332 -0.005575052 
-0.02131085 -0.01947196 -0.005669827 
-0.02116127 -0.01940321 -0.005915563 
-0.02123399 -0.01955574 -0.005815635 
-0.02130895 -0.01947404 -0.005673293 
-0.02116108 -0.01963461 -0.005965766 
-0.02106382 -0.01966463 -0.006164453 
-0.02109586 -0.01970468 -0.006111489 
-0.0210735 -0.01972859 -0.006164281 
-0.02103606 -0.0197685 -0.006256294 
-0.02095003 -0.01968095 -0.006419378 
-0.02098136 -0.01982654 -0.00639999 
-0.02093144 -0.01987924 -0.00654242 
-0.02084893 -0.01969546 -0.006679705 
-0.02088718 -0.01992574 -0.006679695 
-0.02074771 -0.02007093 -0.007215639 
-0.02074806 -0.02007056 -0.007213977 
-0.02073079 -0.01998538 -0.007213979 
-0.02077657 -0.02004105 -0.007087001 
-0.02080905 -0.02000732 -0.006955361 
-0.0207222 -0.02009726 -0.007341293 
-0.02066966 -0.01999727 -0.007486603 
-0.02069979 -0.02012034 -0.007463991 
-0.02062191 -0.02000656 -0.007761987 
-0.02065536 -0.02016595 -0.007761931 
-0.02066336 -0.02015775 -0.007700656 
-0.02068025 -0.02014043 -0.007583766 
-0.02063642 -0.02018533 -0.007929543 
-0.02058768 -0.02001322 -0.008039449 
-0.02062633 -0.02019564 -0.008039406 
-0.02061824 -0.0202039 -0.008146564 
-0.02060321 -0.02021923 -0.008540222 
-0.02056003 -0.02001859 -0.008597859 
-0.02060294 -0.02021951 -0.00859786 
-0.02060395 -0.02021848 -0.008718307 
-0.02056669 -0.0200173 -0.008877423 
-0.02060888 -0.02021345 -0.008884987 
-0.02061723 -0.02020493 -0.009041008 
-0.02058699 -0.02001335 -0.009156303 
-0.02062575 -0.02019624 -0.009156315 
-0.02067315 -0.02014771 -0.009571701 
-0.02065675 -0.02016453 -0.009451827 
-0.02062088 -0.02000676 -0.009433809 
-0.02064168 -0.02017995 -0.009323802 
-0.02062835 -0.02019357 -0.009187063 
-0.02069477 -0.0201255 -0.00970935 
-0.02066828 -0.01999754 -0.009709254 
-0.02070968 -0.02011016 -0.009794617 
-0.02072908 -0.01998571 -0.009981956 
-0.0207466 -0.02007207 -0.009981965 
-0.02085278 -0.01996174 -0.01040775 
-0.02082122 -0.01999466 -0.01029379 
-0.02080311 -0.01997131 -0.01025124 
-0.02078504 -0.02003227 -0.01015133 
-0.02074751 -0.02007112 -0.009986253 
-0.02075871 -0.0197084 -0.01025124 
-0.02085542 -0.01995898 -0.01041692 
-0.02094745 -0.01986237 -0.01070736 
-0.02116108 -0.01963461 -0.01123703 
-0.02109622 -0.01970428 -0.01109215 
-0.02106079 -0.01966506 -0.01103196 
-0.02107085 -0.01973142 -0.01103215 
-0.02103489 -0.01976975 -0.01094352 
-0.02115791 -0.01940352 -0.01128101 
-0.02118188 -0.01961217 -0.01128113 
-0.02103127 -0.01941531 -0.01103196 
-0.0213644 -0.01941319 -0.01162795 
-0.02128522 -0.01949998 -0.01148564 
-0.02120954 -0.01958225 -0.01133819 
-0.02128053 -0.01915289 -0.01152343 
-0.02144308 -0.01932625 -0.01175878 
-0.02143169 -0.01914636 -0.01175861 
-0.02147537 -0.01929036 -0.01180971 
-0.02153314 -0.01922585 -0.01189714 
-0.02159026 -0.0189167 -0.01198597 
-0.02174736 -0.0189832 -0.01218464 
-0.02176418 -0.01891782 -0.01220495 
-0.02184464 -0.01887117 -0.01229846 
-0.02177087 -0.01870389 -0.01220495 
-0.02191064 -0.0187945 -0.01237038 
-0.02195518 -0.01871423 -0.01241501 
-0.02201117 -0.01867667 -0.01247221 
-0.02217128 -0.01848632 -0.01261645 
-0.02213626 -0.01852823 -0.01258671 
-0.02197174 -0.01851003 -0.01241501 
-0.02211348 -0.01855541 -0.01256683 
-0.02222087 -0.01842668 -0.01265691 
-0.02199841 -0.0183069 -0.01241501 
-0.02242992 -0.01817163 -0.01280684 
-0.02241858 -0.01818562 -0.01279953 
-0.02222586 -0.018145 -0.01261562 
-0.02255377 -0.01801769 -0.0128806 
-0.02246905 -0.01812322 -0.01283133 
-0.0224683 -0.01800646 -0.0128063 
-0.02227033 -0.01795493 -0.01261562 
-0.02266812 -0.01787361 -0.01293914 
-0.02251934 -0.01782859 -0.0128063 
-0.02257915 -0.01765347 -0.0128063 
-0.02284419 -0.01756549 -0.01298656 
-0.02291473 -0.01755633 -0.01303483 
-0.02291665 -0.01740681 -0.01298656 
-0.0230109 -0.01743008 -0.01306094 
-0.02299689 -0.01725193 -0.01298656 
-0.0231184 -0.01728725 -0.01308266 
-0.02327915 -0.01707017 -0.01310025 
-0.02319885 -0.01717914 -0.01309371 
-0.02308472 -0.01710121 -0.01298656 
-0.02335929 -0.01696034 -0.01310224 
-0.023302 -0.01703897 -0.01310129 
-0.02317992 -0.01695504 -0.01298656 
-0.02343927 -0.01684964 -0.01309962 
-0.02340026 -0.01690377 -0.01310148 
-0.02328226 -0.01681378 -0.01298656 
-0.02354508 -0.01670145 -0.01308891 
-0.02349805 -0.01676756 -0.0130947 
-0.02339148 -0.01667776 -0.01298656 
-0.02350731 -0.01654733 -0.01298656 
-0.02362319 -0.0165908 -0.01307557 
-0.02362948 -0.01642281 -0.01298656 
-0.02368106 -0.01650809 -0.01306261 
-0.02375767 -0.01630451 -0.01298656 
-0.02376675 -0.01638448 -0.01303848 
-0.02385282 -0.0161948 -0.01296835 
-0.02385112 -0.01626142 -0.01300876 
-0.02403686 -0.01598559 -0.01292113 
-0.023999 -0.01604236 -0.01294158 
-0.02390642 -0.01591384 -0.0128063 
-0.02395806 -0.01610344 -0.01296217 
-0.02419088 -0.01575153 -0.01282327 
-0.02411446 -0.01586827 -0.01287485 
-0.02405953 -0.01580991 -0.0128063 
-0.02410579 -0.01588144 -0.01288032 
-0.02421354 -0.01571667 -0.01280679 
-0.02394887 -0.01563786 -0.01261562 
-0.02433307 -0.01553097 -0.01271025 
-0.02428719 -0.01544328 -0.01261562 
-0.02436249 -0.01548478 -0.01268389 
-0.02443272 -0.01537373 -0.01261657 
-0.02443364 -0.01537227 -0.01261564 
-0.02419856 -0.01526979 -0.01241501 
-0.02469036 -0.01495646 -0.01230911 
-0.02470605 -0.01485683 -0.01220495 
-0.02474013 -0.01487399 -0.01223703 
-0.02478873 -0.01479285 -0.01216203 
-0.02500668 -0.01442135 -0.01175867 
-0.02496918 -0.01448618 -0.011837 
-0.02481958 -0.01446967 -0.01175861 
-0.02492633 -0.01455979 -0.01192156 
-0.0248636 -0.01462642 -0.01198597 
-0.02488199 -0.01463544 -0.01200396 
-0.02483611 -0.01471316 -0.01208415 
-0.02501057 -0.01441461 -0.0117503 
-0.02477868 -0.014324 -0.01152343 
-0.02503451 -0.01437298 -0.0116977 
-0.0250096 -0.01426531 -0.01152343 
-0.02505053 -0.01434505 -0.01166147 
-0.02509447 -0.01426804 -0.01155736 
-0.02519786 -0.01408464 -0.01128109 
-0.02519287 -0.01409358 -0.0112956 
-0.02497861 -0.01412938 -0.01128101 
-0.02513144 -0.01420282 -0.01146402 
-0.02510812 -0.01424402 -0.01152356 
-0.02527696 -0.0139422 -0.0110321 
-0.02526727 -0.01395976 -0.01106476 
-0.02519686 -0.01395559 -0.01103196 
-0.02523624 -0.01401577 -0.01116506 
-0.02521483 -0.01405424 -0.01123081 
-0.02531116 -0.01388001 -0.01091131 
-0.02517696 -0.01384269 -0.01077689 
-0.02535171 -0.01380581 -0.01075519 
-0.02538135 -0.01375124 -0.01063043 
-0.02515929 -0.01374243 -0.01051644 
-0.02540641 -0.01370489 -0.01051647 
-0.02550073 -0.01352858 -0.009981957 
-0.02550062 -0.01352877 -0.009982682 
-0.02539816 -0.01354046 -0.009981956 
-0.02548055 -0.01356655 -0.01011541 
-0.0254586 -0.01360769 -0.01024655 
-0.02551883 -0.01349439 -0.009848354 
-0.02539045 -0.01347901 -0.009709254 
-0.02553518 -0.01346343 -0.009712418 
-0.02554962 -0.01343601 -0.009575238 
-0.02538444 -0.0134311 -0.009433809 
-0.02556209 -0.01341227 -0.009437555 
-0.02538014 -0.01339684 -0.009156303 
-0.02557262 -0.01339218 -0.009299391 
-0.0255624 -0.01341167 -0.009433812 
-0.02559271 -0.01335375 -0.00888203 
-0.02558792 -0.01336292 -0.009021627 
-0.02558123 -0.01337573 -0.009160748 
-0.02068405 -0.01971911 -0.009981956 
-0.02062275 -0.0197279 -0.009709254 
-0.02057495 -0.01973476 -0.009433809 
-0.02054077 -0.01973966 -0.009156303 
-0.0205203 -0.0197426 -0.008877423 
-0.02051359 -0.01974356 -0.008597859 
-0.02052065 -0.01974254 -0.008318304 
-0.02054147 -0.01973956 -0.008039449 
-0.02057599 -0.01973461 -0.007761987 
-0.02062413 -0.0197277 -0.007486603 
-0.02068578 -0.01971886 -0.007213979 
-0.02076077 -0.0197081 -0.006944791 
-0.02088615 -0.01992683 -0.006683038 
-0.02514389 -0.01365505 -0.01025124 
-0.0251308 -0.01358077 -0.009981956 
-0.02512005 -0.01351978 -0.009709254 
-0.02511167 -0.01347222 -0.009433809 
-0.02510567 -0.01343822 -0.009156303 
-0.02510208 -0.01341785 -0.008877423 
-0.02510091 -0.01341117 -0.008597859 
-0.02510214 -0.0134182 -0.008318304 
-0.02510579 -0.01343891 -0.008039449 
-0.02511185 -0.01347326 -0.007761987 
-0.02512029 -0.01352116 -0.007486603 
-0.0251311 -0.01358249 -0.007213979 
-0.02091713 -0.01942594 -0.01077689 
-0.02081576 -0.01943538 -0.01051644 
-0.02072741 -0.0194436 -0.01025124 
-0.02065232 -0.01945059 -0.009981956 
-0.02059065 -0.01945633 -0.009709254 
-0.02054257 -0.01946081 -0.009433809 
-0.02050819 -0.01946401 -0.009156303 
-0.0204876 -0.01946593 -0.008877423 
-0.02048085 -0.01946656 -0.008597859 
-0.02048795 -0.0194659 -0.008318304 
-0.02050889 -0.01946395 -0.008039449 
-0.02054362 -0.01946071 -0.007761987 
-0.02059205 -0.0194562 -0.007486603 
-0.02065405 -0.01945043 -0.007213979 
-0.02072949 -0.01944341 -0.006944791 
-0.02081816 -0.01943515 -0.006679705 
-0.02091986 -0.01942568 -0.006419378 
-0.02103432 -0.01941503 -0.006164453 
-0.02118491 -0.0196089 -0.005915315 
-0.02495035 -0.01400537 -0.01103196 
-0.02492487 -0.0138936 -0.01077689 
-0.02490225 -0.01379434 -0.01051644 
-0.02488253 -0.01370784 -0.01025124 
-0.02486577 -0.0136343 -0.009981956 
-0.02485201 -0.01357392 -0.009709254 
-0.02484127 -0.01352683 -0.009433809 
-0.0248336 -0.01349317 -0.009156303 
-0.024829 -0.01347301 -0.008877423 
-0.0248275 -0.01346639 -0.008597859 
-0.02482908 -0.01347335 -0.008318304 
-0.02483376 -0.01349385 -0.008039449 
-0.02484151 -0.01352786 -0.007761987 
-0.02485232 -0.01357528 -0.007486603 
-0.02486616 -0.013636 -0.007213979 
-0.02488299 -0.01370986 -0.006944791 
-0.02490279 -0.0137967 -0.006679705 
-0.02492548 -0.01389628 -0.006419378 
-0.02114124 -0.01915891 -0.01128101 
-0.02101418 -0.0191644 -0.01103196 
-0.02089965 -0.01916935 -0.01077689 
-0.02079793 -0.01917375 -0.01051644 
-0.02070929 -0.01917758 -0.01025124 
-0.02063394 -0.01918084 -0.009981956 
-0.02057207 -0.01918351 -0.009709254 
-0.02052382 -0.0191856 -0.009433809 
-0.02048933 -0.01918709 -0.009156303 
-0.02046867 -0.01918798 -0.008877423 
-0.02046189 -0.01918827 -0.008597859 
-0.02046902 -0.01918796 -0.008318304 
-0.02049003 -0.01918706 -0.008039449 
-0.02052487 -0.01918555 -0.007761987 
-0.02057347 -0.01918345 -0.007486603 
-0.02063568 -0.01918076 -0.007213979 
-0.02071137 -0.01917749 -0.006944791 
-0.02080035 -0.01917364 -0.006679705 
-0.02090239 -0.01916924 -0.006419378 
-0.02101724 -0.01916427 -0.006164453 
-0.02114462 -0.01915877 -0.005915563 
-0.02128421 -0.01915273 -0.005673324 
-0.02144664 -0.01932229 -0.005438315 
-0.02474099 -0.01418978 -0.01128101 
-0.02470661 -0.01406733 -0.01103196 
-0.02467562 -0.01395696 -0.01077689 
-0.0246481 -0.01385895 -0.01051644 
-0.02462411 -0.01377353 -0.01025124 
-0.02460372 -0.01370091 -0.009981956 
-0.02458698 -0.01364128 -0.009709254 
-0.02457392 -0.01359479 -0.009433809 
-0.02456459 -0.01356155 -0.009156303 
-0.024559 -0.01354164 -0.008877423 
-0.02455717 -0.01353511 -0.008597859 
-0.02455909 -0.01354198 -0.008318304 
-0.02456478 -0.01356223 -0.008039449 
-0.02457421 -0.01359581 -0.007761987 
-0.02458736 -0.01364263 -0.007486603 
-0.02460419 -0.01370259 -0.007213979 
-0.02462467 -0.01377553 -0.006944791 
-0.02464875 -0.01386127 -0.006679705 
-0.02467636 -0.0139596 -0.006419378 
-0.02470744 -0.01407028 -0.006164453 
-0.0247419 -0.01419303 -0.005915563 
-0.02142745 -0.01891565 -0.01175861 
-0.02127615 -0.01891467 -0.01152343 
-0.02113674 -0.01891377 -0.01128101 
-0.02100956 -0.01891295 -0.01103196 
-0.02089492 -0.01891222 -0.01077689 
-0.02079312 -0.01891156 -0.01051644 
-0.02070439 -0.01891099 -0.01025124 
-0.02062897 -0.0189105 -0.009981956 
-0.02056704 -0.0189101 -0.009709254 
-0.02051875 -0.01890979 -0.009433809 
-0.02048423 -0.01890957 -0.009156303 
-0.02046355 -0.01890944 -0.008877423 
-0.02045676 -0.01890939 -0.008597859 
-0.0204639 -0.01890944 -0.008318304 
-0.02048493 -0.01890957 -0.008039449 
-0.02051981 -0.0189098 -0.007761987 
-0.02056844 -0.01891011 -0.007486603 
-0.02063072 -0.01891051 -0.007213979 
-0.02070647 -0.018911 -0.006944791 
-0.02079553 -0.01891158 -0.006679705 
-0.02089766 -0.01891223 -0.006419378 
-0.02101262 -0.01891297 -0.006164453 
-0.02114012 -0.0189138 -0.005915563 
-0.02127983 -0.0189147 -0.005673324 
-0.02143143 -0.01891567 -0.005438334 
-0.02465078 -0.01469192 -0.01198597 
-0.02459904 -0.01453755 -0.01175861 
-0.02455096 -0.01439409 -0.01152343 
-0.02450666 -0.0142619 -0.01128101 
-0.02446624 -0.01414131 -0.01103196 
-0.02442981 -0.01403261 -0.01077689 
-0.02439746 -0.01393608 -0.01051644 
-0.02436927 -0.01385196 -0.01025124 
-0.0243453 -0.01378044 -0.009981956 
-0.02432562 -0.01372172 -0.009709254 
-0.02431028 -0.01367593 -0.009433809 
-0.0242993 -0.0136432 -0.009156303 
-0.02429273 -0.01362359 -0.008877423 
-0.02429058 -0.01361716 -0.008597859 
-0.02429284 -0.01362392 -0.008318304 
-0.02429953 -0.01364386 -0.008039449 
-0.02431061 -0.01367693 -0.007761987 
-0.02432607 -0.01372305 -0.007486603 
-0.02434586 -0.0137821 -0.007213979 
-0.02436993 -0.01385393 -0.006944791 
-0.02439823 -0.01393837 -0.006679705 
-0.02443069 -0.01403521 -0.006419378 
-0.02446722 -0.01414421 -0.006164453 
-0.02450773 -0.0142651 -0.005915563 
-0.02455213 -0.01439758 -0.005673324 
-0.02460031 -0.01454132 -0.005438334 
-0.02159722 -0.01869414 -0.01198597 
-0.02143466 -0.01868501 -0.01175861 
-0.0212836 -0.01867653 -0.01152343 
-0.0211444 -0.01866871 -0.01128101 
-0.02101742 -0.01866159 -0.01103196 
-0.02090296 -0.01865516 -0.01077689 
-0.02080131 -0.01864945 -0.01051644 
-0.02071273 -0.01864448 -0.01025124 
-0.02063743 -0.01864025 -0.009981956 
-0.02057559 -0.01863678 -0.009709254 
-0.02052738 -0.01863407 -0.009433809 
-0.0204929 -0.01863214 -0.009156303 
-0.02047225 -0.01863098 -0.008877423 
-0.02046548 -0.0186306 -0.008597859 
-0.02047261 -0.018631 -0.008318304 
-0.0204936 -0.01863218 -0.008039449 
-0.02052843 -0.01863413 -0.007761987 
-0.02057699 -0.01863686 -0.007486603 
-0.02063917 -0.01864035 -0.007213979 
-0.02071481 -0.0186446 -0.006944791 
-0.02080373 -0.01864959 -0.006679705 
-0.0209057 -0.01865532 -0.006419378 
-0.02102048 -0.01866176 -0.006164453 
-0.02114777 -0.0186689 -0.005915563 
-0.02128728 -0.01867674 -0.005673324 
-0.02143863 -0.01868523 -0.005438334 
-0.02160148 -0.01869438 -0.005211178 
-0.0217754 -0.01870414 -0.004992416 
-0.02195998 -0.0187145 -0.004782591 
-0.02194343 -0.01875621 -0.004798202 
-0.02204461 -0.01863718 -0.004698682 
-0.02450486 -0.01492986 -0.01220495 
-0.02444148 -0.0147679 -0.01198597 
-0.02438214 -0.01461628 -0.01175861 
-0.024327 -0.01447538 -0.01152343 
-0.0242762 -0.01434555 -0.01128101 
-0.02422985 -0.01422712 -0.01103196 
-0.02418807 -0.01412036 -0.01077689 
-0.02415097 -0.01402556 -0.01051644 
-0.02411863 -0.01394293 -0.01025124 
-0.02409115 -0.0138727 -0.009981956 
-0.02406858 -0.01381503 -0.009709254 
-0.02405098 -0.01377006 -0.009433809 
-0.02403839 -0.0137379 -0.009156303 
-0.02403086 -0.01371865 -0.008877423 
-0.02402839 -0.01371233 -0.008597859 
-0.02403099 -0.01371897 -0.008318304 
-0.02403865 -0.01373856 -0.008039449 
-0.02405136 -0.01377104 -0.007761987 
-0.02406909 -0.01381633 -0.007486603 
-0.02409178 -0.01387432 -0.007213979 
-0.02411939 -0.01394487 -0.006944791 
-0.02415185 -0.01402781 -0.006679705 
-0.02418907 -0.01412292 -0.006419378 
-0.02423096 -0.01422997 -0.006164453 
-0.02427743 -0.0143487 -0.005915563 
-0.02432835 -0.01447881 -0.005673324 
-0.02438359 -0.01461998 -0.005438334 
-0.02444303 -0.01477187 -0.005211178 
-0.02178817 -0.01849055 -0.01220495 
-0.02161522 -0.0184722 -0.01198597 
-0.02145331 -0.01845502 -0.01175861 
-0.02130285 -0.01843905 -0.01152343 
-0.02116422 -0.01842434 -0.01128101 
-0.02103774 -0.01841092 -0.01103196 
-0.02092374 -0.01839882 -0.01077689 
-0.02082251 -0.01838808 -0.01051644 
-0.02073428 -0.01837871 -0.01025124 
-0.02065928 -0.01837076 -0.009981956 
-0.02059769 -0.01836422 -0.009709254 
-0.02054967 -0.01835912 -0.009433809 
-0.02051533 -0.01835548 -0.009156303 
-0.02049477 -0.0183533 -0.008877423 
-0.02048803 -0.01835258 -0.008597859 
-0.02049512 -0.01835334 -0.008318304 
-0.02051603 -0.01835556 -0.008039449 
-0.02055072 -0.01835924 -0.007761987 
-0.02059908 -0.01836437 -0.007486603 
-0.02066101 -0.01837094 -0.007213979 
-0.02073635 -0.01837893 -0.006944791 
-0.02082491 -0.01838833 -0.006679705 
-0.02092647 -0.01839911 -0.006419378 
-0.02104079 -0.01841124 -0.006164453 
-0.02116757 -0.0184247 -0.005915563 
-0.02130651 -0.01843944 -0.005673324 
-0.02145727 -0.01845544 -0.005438334 
-0.02161946 -0.01847265 -0.005211178 
-0.02179268 -0.01849103 -0.004992416 
-0.02181603 -0.01827834 -0.01220495 
-0.0216442 -0.01825142 -0.01198597 
-0.02148335 -0.01822623 -0.01175861 
-0.02133387 -0.01820282 -0.01152343 
-0.02119613 -0.01818125 -0.01128101 
-0.02107048 -0.01816157 -0.01103196 
-0.02095722 -0.01814383 -0.01077689 
-0.02085664 -0.01812807 -0.01051644 
-0.02076899 -0.01811435 -0.01025124 
-0.02069447 -0.01810268 -0.009981956 
-0.02063329 -0.01809309 -0.009709254 
-0.02058558 -0.01808562 -0.009433809 
-0.02055147 -0.01808028 -0.009156303 
-0.02053103 -0.01807708 -0.008877423 
-0.02052433 -0.01807603 -0.008597859 
-0.02053138 -0.01807713 -0.008318304 
-0.02055216 -0.01808039 -0.008039449 
-0.02058662 -0.01808578 -0.007761987 
-0.02063467 -0.01809331 -0.007486603 
-0.02069619 -0.01810295 -0.007213979 
-0.02077104 -0.01811467 -0.006944791 
-0.02085903 -0.01812845 -0.006679705 
-0.02095993 -0.01814425 -0.006419378 
-0.02107351 -0.01816204 -0.006164453 
-0.02119947 -0.01818177 -0.005915563 
-0.02133751 -0.01820339 -0.005673324 
-0.02148728 -0.01822685 -0.005438334 
-0.02164841 -0.01825209 -0.005211178 
-0.02182051 -0.01827904 -0.004992416 
-0.02411458 -0.0151054 -0.01220495 
-0.02430754 -0.01501278 -0.01220495 
-0.02403546 -0.01495051 -0.01198597 
-0.0242362 -0.01485417 -0.01198597 
-0.02396139 -0.01480552 -0.01175861 
-0.02416942 -0.01470568 -0.01175861 
-0.02389255 -0.01467078 -0.01152343 
-0.02410735 -0.01456769 -0.01152343 
-0.02382913 -0.01454663 -0.01128101 
-0.02405017 -0.01444054 -0.01128101 
-0.02377127 -0.01443337 -0.01103196 
-0.023998 -0.01432455 -0.01103196 
-0.02371912 -0.01433128 -0.01077689 
-0.02395097 -0.01422 -0.01077689 
-0.0236728 -0.01424062 -0.01051644 
-0.02390921 -0.01412715 -0.01051644 
-0.02363244 -0.01416161 -0.01025124 
-0.02387282 -0.01404624 -0.01025124 
-0.02359812 -0.01409445 -0.009981956 
-0.02384188 -0.01397745 -0.009981956 
-0.02356995 -0.01403929 -0.009709254 
-0.02381648 -0.01392097 -0.009709254 
-0.02354798 -0.01399629 -0.009433809 
-0.02379667 -0.01387693 -0.009433809 
-0.02353227 -0.01396554 -0.009156303 
-0.02378251 -0.01384544 -0.009156303 
-0.02352286 -0.01394712 -0.008877423 
-0.02377403 -0.01382658 -0.008877423 
-0.02351978 -0.01394108 -0.008597859 
-0.02377124 -0.01382039 -0.008597859 
-0.02352302 -0.01394744 -0.008318304 
-0.02377417 -0.0138269 -0.008318304 
-0.02353259 -0.01396617 -0.008039449 
-0.0237828 -0.01384608 -0.008039449 
-0.02354846 -0.01399723 -0.007761987 
-0.0237971 -0.01387789 -0.007761987 
-0.02357058 -0.01404054 -0.007486603 
-0.02381705 -0.01392225 -0.007486603 
-0.02359892 -0.014096 -0.007213979 
-0.0238426 -0.01397904 -0.007213979 
-0.02363338 -0.01416346 -0.006944791 
-0.02387367 -0.01404814 -0.006944791 
-0.0236739 -0.01424277 -0.006679705 
-0.0239102 -0.01412936 -0.006679705 
-0.02372036 -0.01433372 -0.006419378 
-0.0239521 -0.0142225 -0.006419378 
-0.02377266 -0.0144361 -0.006164453 
-0.02399925 -0.01432735 -0.006164453 
-0.02383066 -0.01454964 -0.005915563 
-0.02405155 -0.01444362 -0.005915563 
-0.02389423 -0.01467406 -0.005673324 
-0.02410886 -0.01457105 -0.005673324 
-0.02396319 -0.01480907 -0.005438334 
-0.02417105 -0.01470931 -0.005438334 
-0.02403739 -0.01495431 -0.005211178 
-0.02423795 -0.01485805 -0.005211178 
-0.02411664 -0.01510944 -0.004992416 
-0.0243094 -0.01501692 -0.004992416 
-0.02203512 -0.01810535 -0.01241501 
-0.02185439 -0.01806777 -0.01220495 
-0.0216841 -0.01803236 -0.01198597 
-0.0215247 -0.01799922 -0.01175861 
-0.02137657 -0.01796842 -0.01152343 
-0.02124007 -0.01794004 -0.01128101 
-0.02111555 -0.01791415 -0.01103196 
-0.02100331 -0.01789081 -0.01077689 
-0.02090364 -0.01787009 -0.01051644 
-0.02081677 -0.01785203 -0.01025124 
-0.02074293 -0.01783667 -0.009981956 
-0.02068229 -0.01782406 -0.009709254 
-0.02063501 -0.01781423 -0.009433809 
-0.02060121 -0.0178072 -0.009156303 
-0.02058096 -0.01780299 -0.008877423 
-0.02057432 -0.01780161 -0.008597859 
-0.02058131 -0.01780307 -0.008318304 
-0.02060189 -0.01780735 -0.008039449 
-0.02063604 -0.01781445 -0.007761987 
-0.02068366 -0.01782435 -0.007486603 
-0.02074463 -0.01783703 -0.007213979 
-0.02081881 -0.01785245 -0.006944791 
-0.020906 -0.01787058 -0.006679705 
-0.021006 -0.01789137 -0.006419378 
-0.02111855 -0.01791477 -0.006164453 
-0.02124337 -0.01794072 -0.005915563 
-0.02138017 -0.01796917 -0.005673324 
-0.02152859 -0.01800003 -0.005438334 
-0.02168828 -0.01803323 -0.005211178 
-0.02185883 -0.01806869 -0.004992416 
-0.02203983 -0.01810632 -0.004782591 
-0.02208179 -0.01790586 -0.01241501 
-0.02190314 -0.01785936 -0.01220495 
-0.02173483 -0.01781555 -0.01198597 
-0.02157727 -0.01777454 -0.01175861 
-0.02143084 -0.01773642 -0.01152343 
-0.02129592 -0.01770131 -0.01128101 
-0.02117284 -0.01766927 -0.01103196 
-0.0210619 -0.01764039 -0.01077689 
-0.02096337 -0.01761475 -0.01051644 
-0.02087751 -0.0175924 -0.01025124 
-0.02080452 -0.0175734 -0.009981956 
-0.02074458 -0.0175578 -0.009709254 
-0.02069785 -0.01754563 -0.009433809 
-0.02066444 -0.01753694 -0.009156303 
-0.02064442 -0.01753173 -0.008877423 
-0.02063786 -0.01753002 -0.008597859 
-0.02064476 -0.01753182 -0.008318304 
-0.02066512 -0.01753712 -0.008039449 
-0.02069887 -0.0175459 -0.007761987 
-0.02074594 -0.01755815 -0.007486603 
-0.02080621 -0.01757384 -0.007213979 
-0.02087952 -0.01759292 -0.006944791 
-0.02096571 -0.01761536 -0.006679705 
-0.02106455 -0.01764108 -0.006419378 
-0.0211758 -0.01767004 -0.006164453 
-0.02129919 -0.01770216 -0.005915563 
-0.0214344 -0.01773735 -0.005673324 
-0.02158112 -0.01777554 -0.005438334 
-0.02173896 -0.01781662 -0.005211178 
-0.02190754 -0.0178605 -0.004992416 
-0.02208644 -0.01790707 -0.004782591 
-0.02384348 -0.01547401 -0.01241501 
-0.02401849 -0.01536749 -0.01241501 
-0.02374362 -0.01531875 -0.01220495 
-0.02392645 -0.01520747 -0.01220495 
-0.02364953 -0.01517247 -0.01198597 
-0.02383974 -0.0150567 -0.01198597 
-0.02356146 -0.01503554 -0.01175861 
-0.02375857 -0.01491557 -0.01175861 
-0.02347961 -0.01490828 -0.01152343 
-0.02368313 -0.01478441 -0.01152343 
-0.02340419 -0.01479103 -0.01128101 
-0.02361363 -0.01466356 -0.01128101 
-0.02333539 -0.01468406 -0.01103196 
-0.02355022 -0.0145533 -0.01103196 
-0.02327337 -0.01458764 -0.01077689 
-0.02349306 -0.01445393 -0.01077689 
-0.0232183 -0.01450202 -0.01051644 
-0.02344231 -0.01436568 -0.01051644 
-0.02317031 -0.0144274 -0.01025124 
-0.02339807 -0.01428877 -0.01025124 
-0.02312951 -0.01436397 -0.009981956 
-0.02336047 -0.01422339 -0.009981956 
-0.023096 -0.01431188 -0.009709254 
-0.02332959 -0.0141697 -0.009709254 
-0.02306988 -0.01427126 -0.009433809 
-0.02330552 -0.01412784 -0.009433809 
-0.0230512 -0.01424222 -0.009156303 
-0.0232883 -0.01409791 -0.009156303 
-0.02304001 -0.01422483 -0.008877423 
-0.02327799 -0.01407998 -0.008877423 
-0.02303635 -0.01421913 -0.008597859 
-0.02327461 -0.0140741 -0.008597859 
-0.02304021 -0.01422513 -0.008318304 
-0.02327817 -0.01408029 -0.008318304 
-0.02305158 -0.01424281 -0.008039449 
-0.02328865 -0.01409852 -0.008039449 
-0.02307045 -0.01427215 -0.007761987 
-0.02330604 -0.01412875 -0.007761987 
-0.02309676 -0.01431305 -0.007486603 
-0.02333029 -0.01417091 -0.007486603 
-0.02313045 -0.01436543 -0.007213979 
-0.02336134 -0.0142249 -0.007213979 
-0.02317143 -0.01442915 -0.006944791 
-0.02339911 -0.01429057 -0.006944791 
-0.02321961 -0.01450405 -0.006679705 
-0.02344351 -0.01436777 -0.006679705 
-0.02327486 -0.01458995 -0.006419378 
-0.02349443 -0.01445631 -0.006419378 
-0.02333705 -0.01468664 -0.006164453 
-0.02355174 -0.01455596 -0.006164453 
-0.02340602 -0.01479387 -0.005915563 
-0.02361531 -0.01466648 -0.005915563 
-0.0234816 -0.01491138 -0.005673324 
-0.02368497 -0.0147876 -0.005673324 
-0.02356361 -0.01503888 -0.005438334 
-0.02376055 -0.01491901 -0.005438334 
-0.02365184 -0.01517606 -0.005211178 
-0.02384187 -0.0150604 -0.005211178 
-0.02374607 -0.01532257 -0.004992416 
-0.02392871 -0.0152114 -0.004992416 
-0.02384608 -0.01547805 -0.004782591 
-0.02402088 -0.01537165 -0.004782591 
-0.02232418 -0.0177673 -0.01261562 
-0.0221383 -0.01770893 -0.01241501 
-0.02196218 -0.01765363 -0.01220495 
-0.02179625 -0.01760152 -0.01198597 
-0.02164091 -0.01755274 -0.01175861 
-0.02149656 -0.01750741 -0.01152343 
-0.02136355 -0.01746564 -0.01128101 
-0.02124221 -0.01742753 -0.01103196 
-0.02113284 -0.01739319 -0.01077689 
-0.02103571 -0.01736269 -0.01051644 
-0.02095106 -0.0173361 -0.01025124 
-0.0208791 -0.01731351 -0.009981956 
-0.02082001 -0.01729495 -0.009709254 
-0.02077394 -0.01728049 -0.009433809 
-0.020741 -0.01727014 -0.009156303 
-0.02072127 -0.01726394 -0.008877423 
-0.0207148 -0.01726191 -0.008597859 
-0.02072161 -0.01726405 -0.008318304 
-0.02074167 -0.01727035 -0.008039449 
-0.02077495 -0.0172808 -0.007761987 
-0.02082135 -0.01729537 -0.007486603 
-0.02088076 -0.01731403 -0.007213979 
-0.02095304 -0.01733673 -0.006944791 
-0.02103801 -0.01736341 -0.006679705 
-0.02113545 -0.01739401 -0.006419378 
-0.02124513 -0.01742845 -0.006164453 
-0.02136677 -0.01746665 -0.005915563 
-0.02150007 -0.01750851 -0.005673324 
-0.02164471 -0.01755393 -0.005438334 
-0.02180032 -0.0176028 -0.005211178 
-0.02196651 -0.01765499 -0.004992416 
-0.02214289 -0.01771037 -0.004782591 
-0.022329 -0.01776882 -0.004582221 
-0.02238726 -0.01758258 -0.01261562 
-0.02220452 -0.01751506 -0.01241501 
-0.02203136 -0.01745108 -0.01220495 
-0.02186821 -0.0173908 -0.01198597 
-0.02171549 -0.01733437 -0.01175861 
-0.02157356 -0.01728194 -0.01152343 
-0.02144279 -0.01723362 -0.01128101 
-0.02132349 -0.01718954 -0.01103196 
-0.02121595 -0.01714981 -0.01077689 
-0.02112046 -0.01711453 -0.01051644 
-0.02103723 -0.01708378 -0.01025124 
-0.02096649 -0.01705764 -0.009981956 
-0.02090839 -0.01703617 -0.009709254 
-0.02086309 -0.01701944 -0.009433809 
-0.02083071 -0.01700747 -0.009156303 
-0.02081131 -0.0170003 -0.008877423 
-0.02080495 -0.01699795 -0.008597859 
-0.02081164 -0.01700042 -0.008318304 
-0.02083137 -0.01700771 -0.008039449 
-0.02086408 -0.0170198 -0.007761987 
-0.0209097 -0.01703666 -0.007486603 
-0.02096812 -0.01705824 -0.007213979 
-0.02103918 -0.0170845 -0.006944791 
-0.02112272 -0.01711536 -0.006679705 
-0.02121853 -0.01715076 -0.006419378 
-0.02132636 -0.0171906 -0.006164453 
-0.02144596 -0.01723479 -0.005915563 
-0.02157702 -0.01728321 -0.005673324 
-0.02171922 -0.01733575 -0.005438334 
-0.02187221 -0.01739228 -0.005211178 
-0.02203561 -0.01745265 -0.004992416 
-0.02220902 -0.01751672 -0.004782591 
-0.02239201 -0.01758433 -0.004582221 
-0.02375867 -0.01602525 -0.0128063 
-0.0236315 -0.01586502 -0.01261562 
-0.02378737 -0.0157475 -0.01261562 
-0.02351039 -0.01571242 -0.01241501 
-0.02367397 -0.01558908 -0.01241501 
-0.02339563 -0.01556782 -0.01220495 
-0.02356653 -0.01543897 -0.01220495 
-0.02328751 -0.01543159 -0.01198597 
-0.02346531 -0.01529754 -0.01198597 
-0.0231863 -0.01530406 -0.01175861 
-0.02337054 -0.01516514 -0.01175861 
-0.02309224 -0.01518554 -0.01152343 
-0.02328248 -0.01504211 -0.01152343 
-0.02300557 -0.01507634 -0.01128101 
-0.02320134 -0.01492874 -0.01128101 
-0.0229265 -0.01497672 -0.01103196 
-0.02312731 -0.01482531 -0.01103196 
-0.02285524 -0.01488692 -0.01077689 
-0.02306059 -0.01473209 -0.01077689 
-0.02279195 -0.01480718 -0.01051644 
-0.02300134 -0.01464931 -0.01051644 
-0.0227368 -0.01473768 -0.01025124 
-0.0229497 -0.01457716 -0.01025124 
-0.02268991 -0.0146786 -0.009981956 
-0.0229058 -0.01451583 -0.009981956 
-0.02265141 -0.01463009 -0.009709254 
-0.02286976 -0.01446547 -0.009709254 
-0.02262139 -0.01459227 -0.009433809 
-0.02284165 -0.0144262 -0.009433809 
-0.02259992 -0.01456522 -0.009156303 
-0.02282155 -0.01439812 -0.009156303 
-0.02258707 -0.01454902 -0.008877423 
-0.02280952 -0.0143813 -0.008877423 
-0.02258285 -0.01454371 -0.008597859 
-0.02280557 -0.01437579 -0.008597859 
-0.02258729 -0.0145493 -0.008318304 
-0.02280972 -0.01438159 -0.008318304 
-0.02260036 -0.01456577 -0.008039449 
-0.02282196 -0.01439869 -0.008039449 
-0.02262204 -0.01459309 -0.007761987 
-0.02284226 -0.01442705 -0.007761987 
-0.02265228 -0.01463119 -0.007486603 
-0.02287057 -0.0144666 -0.007486603 
-0.02269099 -0.01467997 -0.007213979 
-0.02290682 -0.01451724 -0.007213979 
-0.02273809 -0.01473931 -0.006944791 
-0.02295091 -0.01457885 -0.006944791 
-0.02279345 -0.01480907 -0.006679705 
-0.02300274 -0.01465127 -0.006679705 
-0.02285695 -0.01488907 -0.006419378 
-0.02306219 -0.01473432 -0.006419378 
-0.02292841 -0.01497912 -0.006164453 
-0.0231291 -0.0148278 -0.006164453 
-0.02300767 -0.01507899 -0.005915563 
-0.0232033 -0.01493148 -0.005915563 
-0.02309453 -0.01518843 -0.005673324 
-0.02328463 -0.0150451 -0.005673324 
-0.02318877 -0.01530717 -0.005438334 
-0.02337286 -0.01516837 -0.005438334 
-0.02329016 -0.01543493 -0.005211178 
-0.02346779 -0.015301 -0.005211178 
-0.02339845 -0.01557138 -0.004992416 
-0.02356917 -0.01544266 -0.004992416 
-0.02351337 -0.01571618 -0.004782591 
-0.02367677 -0.01559298 -0.004782591 
-0.02363464 -0.01586898 -0.004582221 
-0.02379031 -0.01575161 -0.004582221 
-0.02264757 -0.01748154 -0.0128063 
-0.02245944 -0.01740121 -0.01261562 
-0.02228027 -0.0173247 -0.01241501 
-0.02211049 -0.01725221 -0.01220495 
-0.02195054 -0.01718391 -0.01198597 
-0.02180081 -0.01711998 -0.01175861 
-0.02166166 -0.01706056 -0.01152343 
-0.02153344 -0.01700581 -0.01128101 
-0.02141647 -0.01695587 -0.01103196 
-0.02131105 -0.01691085 -0.01077689 
-0.02121742 -0.01687087 -0.01051644 
-0.02113582 -0.01683603 -0.01025124 
-0.02106646 -0.01680642 -0.009981956 
-0.0210095 -0.0167821 -0.009709254 
-0.02096509 -0.01676313 -0.009433809 
-0.02093333 -0.01674957 -0.009156303 
-0.02091431 -0.01674145 -0.008877423 
-0.02090808 -0.01673879 -0.008597859 
-0.02091464 -0.01674159 -0.008318304 
-0.02093398 -0.01674985 -0.008039449 
-0.02096606 -0.01676355 -0.007761987 
-0.02101079 -0.01678265 -0.007486603 
-0.02106806 -0.0168071 -0.007213979 
-0.02113773 -0.01683685 -0.006944791 
-0.02121964 -0.01687182 -0.006679705 
-0.02131357 -0.01691193 -0.006419378 
-0.02141929 -0.01695707 -0.006164453 
-0.02153655 -0.01700714 -0.005915563 
-0.02166505 -0.01706201 -0.005673324 
-0.02180446 -0.01712154 -0.005438334 
-0.02195446 -0.01718559 -0.005211178 
-0.02211467 -0.01725399 -0.004992416 
-0.02228468 -0.01732659 -0.004782591 
-0.02246409 -0.01740319 -0.004582221 
-0.02265244 -0.01748361 -0.004391804 
-0.0227956 -0.01771074 -0.004209013 
-0.02272444 -0.01731321 -0.0128063 
-0.02254052 -0.01722364 -0.01261562 
-0.02236537 -0.01713834 -0.01241501 
-0.0221994 -0.01705752 -0.01220495 
-0.02204304 -0.01698137 -0.01198597 
-0.02189666 -0.01691008 -0.01175861 
-0.02176063 -0.01684383 -0.01152343 
-0.02163529 -0.01678279 -0.01128101 
-0.02152094 -0.0167271 -0.01103196 
-0.02141788 -0.01667691 -0.01077689 
-0.02132635 -0.01663234 -0.01051644 
-0.02124658 -0.01659349 -0.01025124 
-0.02117877 -0.01656047 -0.009981956 
-0.02112309 -0.01653335 -0.009709254 
-0.02107968 -0.01651221 -0.009433809 
-0.02104863 -0.01649709 -0.009156303 
-0.02103004 -0.01648803 -0.008877423 
-0.02102394 -0.01648507 -0.008597859 
-0.02103036 -0.01648819 -0.008318304 
-0.02104926 -0.0164974 -0.008039449 
-0.02108062 -0.01651267 -0.007761987 
-0.02112435 -0.01653396 -0.007486603 
-0.02118034 -0.01656123 -0.007213979 
-0.02124845 -0.0165944 -0.006944791 
-0.02132852 -0.01663339 -0.006679705 
-0.02142034 -0.01667811 -0.006419378 
-0.0215237 -0.01672845 -0.006164453 
-0.02163832 -0.01678427 -0.005915563 
-0.02176394 -0.01684544 -0.005673324 
-0.02190023 -0.01691182 -0.005438334 
-0.02204687 -0.01698323 -0.005211178 
-0.02220348 -0.0170595 -0.004992416 
-0.02236969 -0.01714044 -0.004782591 
-0.02254507 -0.01722585 -0.004582221 
-0.0227292 -0.01731552 -0.004391804 
-0.02292161 -0.01740923 -0.00421181 
-0.0231025 -0.0173085 -0.00412285 
-0.02280956 -0.0171489 -0.0128063 
-0.02263032 -0.01705032 -0.01261562 
-0.02245962 -0.01695643 -0.01241501 
-0.02229786 -0.01686747 -0.01220495 
-0.02214547 -0.01678365 -0.01198597 
-0.02200281 -0.01670519 -0.01175861 
-0.02187023 -0.01663228 -0.01152343 
-0.02174807 -0.01656509 -0.01128101 
-0.02163663 -0.0165038 -0.01103196 
-0.02153618 -0.01644856 -0.01077689 
-0.02144698 -0.0163995 -0.01051644 
-0.02136924 -0.01635674 -0.01025124 
-0.02130315 -0.01632039 -0.009981956 
-0.02124888 -0.01629055 -0.009709254 
-0.02120657 -0.01626728 -0.009433809 
-0.02117632 -0.01625064 -0.009156303 
-0.0211582 -0.01624067 -0.008877423 
-0.02115225 -0.0162374 -0.008597859 
-0.02115851 -0.01624084 -0.008318304 
-0.02117693 -0.01625098 -0.008039449 
-0.02120749 -0.01626778 -0.007761987 
-0.02125011 -0.01629122 -0.007486603 
-0.02130468 -0.01632123 -0.007213979 
-0.02137106 -0.01635774 -0.006944791 
-0.02144909 -0.01640066 -0.006679705 
-0.02153859 -0.01644988 -0.006419378 
-0.02163932 -0.01650528 -0.006164453 
-0.02175103 -0.01656672 -0.005915563 
-0.02187346 -0.01663405 -0.005673324 
-0.02200629 -0.01670711 -0.005438334 
-0.02214921 -0.01678571 -0.005211178 
-0.02230184 -0.01686966 -0.004992416 
-0.02246382 -0.01695875 -0.004782591 
-0.02263475 -0.01705275 -0.004582221 
-0.0228142 -0.01715145 -0.004391804 
-0.02300173 -0.01725459 -0.00421181 
-0.02319339 -0.01718651 -0.004109689 
-0.02290274 -0.01698902 -0.0128063 
-0.02272861 -0.01688166 -0.01261562 
-0.02256277 -0.01677942 -0.01241501 
-0.02240563 -0.01668254 -0.01220495 
-0.02225758 -0.01659127 -0.01198597 
-0.02211899 -0.01650583 -0.01175861 
-0.0219902 -0.01642643 -0.01152343 
-0.02187152 -0.01635326 -0.01128101 
-0.02176326 -0.01628652 -0.01103196 
-0.02166568 -0.01622635 -0.01077689 
-0.02157902 -0.01617293 -0.01051644 
-0.02150349 -0.01612637 -0.01025124 
-0.02143929 -0.01608679 -0.009981956 
-0.02138657 -0.01605428 -0.009709254 
-0.02134546 -0.01602894 -0.009433809 
-0.02131607 -0.01601082 -0.009156303 
-0.02129847 -0.01599997 -0.008877423 
-0.0212927 -0.01599641 -0.008597859 
-0.02129877 -0.01600015 -0.008318304 
-0.02131667 -0.01601119 -0.008039449 
-0.02134636 -0.01602949 -0.007761987 
-0.02138776 -0.01605502 -0.007486603 
-0.02144077 -0.0160877 -0.007213979 
-0.02150526 -0.01612746 -0.006944791 
-0.02158107 -0.0161742 -0.006679705 
-0.02166801 -0.01622779 -0.006419378 
-0.02176587 -0.01628812 -0.006164453 
-0.0218744 -0.01635503 -0.005915563 
-0.02199333 -0.01642836 -0.005673324 
-0.02212238 -0.01650792 -0.005438334 
-0.02226121 -0.01659351 -0.005211178 
-0.02240949 -0.01668493 -0.004992416 
-0.02256686 -0.01678194 -0.004782591 
-0.02273291 -0.01688432 -0.004582221 
-0.02290724 -0.01699179 -0.004391804 
-0.02308942 -0.01710411 -0.00421181 
-0.02325361 -0.01710495 -0.00410413 
-0.02300373 -0.01683395 -0.0128063 
-0.02283514 -0.0167181 -0.01261562 
-0.02267458 -0.01660775 -0.01241501 
-0.02252244 -0.0165032 -0.01220495 
-0.02237911 -0.01640469 -0.01198597 
-0.02224492 -0.01631247 -0.01175861 
-0.02212023 -0.01622678 -0.01152343 
-0.02200533 -0.01614782 -0.01128101 
-0.02190051 -0.01607578 -0.01103196 
-0.02180604 -0.01601085 -0.01077689 
-0.02172213 -0.01595319 -0.01051644 
-0.02164901 -0.01590294 -0.01025124 
-0.02158685 -0.01586022 -0.009981956 
-0.02153581 -0.01582514 -0.009709254 
-0.02149601 -0.01579779 -0.009433809 
-0.02146756 -0.01577824 -0.009156303 
-0.02145051 -0.01576652 -0.008877423 
-0.02144492 -0.01576268 -0.008597859 
-0.0214508 -0.01576672 -0.008318304 
-0.02146814 -0.01577863 -0.008039449 
-0.02149688 -0.01579839 -0.007761987 
-0.02153696 -0.01582594 -0.007486603 
-0.02158829 -0.01586121 -0.007213979 
-0.02165072 -0.01590412 -0.006944791 
-0.02172412 -0.01595456 -0.006679705 
-0.02180829 -0.01601241 -0.006419378 
-0.02190304 -0.01607752 -0.006164453 
-0.02200811 -0.01614973 -0.005915563 
-0.02212326 -0.01622886 -0.005673324 
-0.0222482 -0.01631473 -0.005438334 
-0.02238262 -0.0164071 -0.005211178 
-0.02252618 -0.01650577 -0.004992416 
-0.02267854 -0.01661047 -0.004782591 
-0.02283931 -0.01672096 -0.004582221 
-0.02300809 -0.01683695 -0.004391804 
-0.02311229 -0.01668409 -0.0128063 
-0.02294966 -0.01656001 -0.01261562 
-0.02279477 -0.01644184 -0.01241501 
-0.02264801 -0.01632986 -0.01220495 
-0.02250974 -0.01622437 -0.01198597 
-0.02238029 -0.01612561 -0.01175861 
-0.02226 -0.01603383 -0.01152343 
-0.02214917 -0.01594926 -0.01128101 
-0.02204805 -0.01587212 -0.01103196 
-0.02195691 -0.01580258 -0.01077689 
-0.02187597 -0.01574082 -0.01051644 
-0.02180544 -0.01568701 -0.01025124 
-0.02174547 -0.01564126 -0.009981956 
-0.02169624 -0.01560369 -0.009709254 
-0.02165784 -0.0155744 -0.009433809 
-0.02163039 -0.01555345 -0.009156303 
-0.02161395 -0.01554091 -0.008877423 
-0.02160856 -0.0155368 -0.008597859 
-0.02161423 -0.01554112 -0.008318304 
-0.02163095 -0.01555388 -0.008039449 
-0.02165868 -0.01557504 -0.007761987 
-0.02169735 -0.01560454 -0.007486603 
-0.02174686 -0.01564232 -0.007213979 
-0.02180709 -0.01568827 -0.006944791 
-0.02187789 -0.01574229 -0.006679705 
-0.02195909 -0.01580424 -0.006419378 
-0.02205049 -0.01587397 -0.006164453 
-0.02215185 -0.01595131 -0.005915563 
-0.02226293 -0.01603606 -0.005673324 
-0.02238346 -0.01612802 -0.005438334 
-0.02251313 -0.01622695 -0.005211178 
-0.02265162 -0.01633262 -0.004992416 
-0.02279859 -0.01644475 -0.004782591 
-0.02295368 -0.01656308 -0.004582221 
-0.0231165 -0.01668731 -0.004391804 
-0.02322815 -0.01653981 -0.0128063 
-0.02307188 -0.01640781 -0.01261562 
-0.02292305 -0.01628209 -0.01241501 
-0.02278202 -0.01616297 -0.01220495 
-0.02264915 -0.01605074 -0.01198597 
-0.02252477 -0.01594568 -0.01175861 
-0.02240918 -0.01584805 -0.01152343 
-0.02230268 -0.01575809 -0.01128101 
-0.02220551 -0.01567602 -0.01103196 
-0.02211794 -0.01560205 -0.01077689 
-0.02204016 -0.01553635 -0.01051644 
-0.02197238 -0.0154791 -0.01025124 
-0.02191477 -0.01543043 -0.009981956 
-0.02186745 -0.01539047 -0.009709254 
-0.02183056 -0.01535931 -0.009433809 
-0.02180418 -0.01533703 -0.009156303 
-0.02178838 -0.01532369 -0.008877423 
-0.0217832 -0.01531931 -0.008597859 
-0.02178865 -0.01532391 -0.008318304 
-0.02180472 -0.01533748 -0.008039449 
-0.02183136 -0.01535999 -0.007761987 
-0.02186852 -0.01539137 -0.007486603 
-0.0219161 -0.01543156 -0.007213979 
-0.02197397 -0.01548045 -0.006944791 
-0.02204201 -0.01553791 -0.006679705 
-0.02212003 -0.01560382 -0.006419378 
-0.02220786 -0.015678 -0.006164453 
-0.02230526 -0.01576027 -0.005915563 
-0.022412 -0.01585043 -0.005673324 
-0.02252781 -0.01594825 -0.005438334 
-0.02265241 -0.0160535 -0.005211178 
-0.02278549 -0.0161659 -0.004992416 
-0.02292672 -0.01628519 -0.004782591 
-0.02307574 -0.01641107 -0.004582221 
-0.0232322 -0.01654322 -0.004391804 
-0.02335103 -0.01640144 -0.0128063 
-0.0232015 -0.01626185 -0.01261562 
-0.02305909 -0.01612891 -0.01241501 
-0.02292415 -0.01600294 -0.01220495 
-0.02279701 -0.01588426 -0.01198597 
-0.022678 -0.01577315 -0.01175861 
-0.0225674 -0.01566991 -0.01152343 
-0.02246549 -0.01557477 -0.01128101 
-0.02237252 -0.01548798 -0.01103196 
-0.02228872 -0.01540975 -0.01077689 
-0.0222143 -0.01534028 -0.01051644 
-0.02214944 -0.01527974 -0.01025124 
-0.02209431 -0.01522827 -0.009981956 
-0.02204904 -0.01518601 -0.009709254 
-0.02201374 -0.01515306 -0.009433809 
-0.0219885 -0.01512949 -0.009156303 
-0.02197338 -0.01511538 -0.008877423 
-0.02196842 -0.01511075 -0.008597859 
-0.02197364 -0.01511562 -0.008318304 
-0.02198901 -0.01512997 -0.008039449 
-0.02201451 -0.01515377 -0.007761987 
-0.02205006 -0.01518696 -0.007486603 
-0.02209558 -0.01522946 -0.007213979 
-0.02215096 -0.01528116 -0.006944791 
-0.02221606 -0.01534193 -0.006679705 
-0.02229072 -0.01541163 -0.006419378 
-0.02237475 -0.01549007 -0.006164453 
-0.02246795 -0.01557708 -0.005915563 
-0.02257009 -0.01567242 -0.005673324 
-0.0226809 -0.01577587 -0.005438334 
-0.02280013 -0.01588717 -0.005211178 
-0.02292747 -0.01600604 -0.004992416 
-0.0230626 -0.01613219 -0.004782591 
-0.0232052 -0.0162653 -0.004582221 
-0.0233549 -0.01640506 -0.004391804 
-0.02351135 -0.0165511 -0.00421181 
-0.02367293 -0.01651973 -0.004138204 
-0.02348063 -0.01626935 -0.0128063 
-0.02333821 -0.01612251 -0.01261562 
-0.02320257 -0.01598267 -0.01241501 
-0.02307404 -0.01585015 -0.01220495 
-0.02295295 -0.01572531 -0.01198597 
-0.02283959 -0.01560844 -0.01175861 
-0.02273425 -0.01549983 -0.01152343 
-0.02263719 -0.01539975 -0.01128101 
-0.02254864 -0.01530846 -0.01103196 
-0.02246883 -0.01522617 -0.01077689 
-0.02239794 -0.01515309 -0.01051644 
-0.02233617 -0.0150894 -0.01025124 
-0.02228366 -0.01503527 -0.009981956 
-0.02224054 -0.01499081 -0.009709254 
-0.02220692 -0.01495615 -0.009433809 
-0.02218288 -0.01493136 -0.009156303 
-0.02216848 -0.01491652 -0.008877423 
-0.02216376 -0.01491165 -0.008597859 
-0.02216873 -0.01491677 -0.008318304 
-0.02218337 -0.01493187 -0.008039449 
-0.02220765 -0.0149569 -0.007761987 
-0.02224152 -0.01499181 -0.007486603 
-0.02228487 -0.01503652 -0.007213979 
-0.02233762 -0.0150909 -0.006944791 
-0.02239963 -0.01515483 -0.006679705 
-0.02247074 -0.01522814 -0.006419378 
-0.02255077 -0.01531066 -0.006164453 
-0.02263954 -0.01540218 -0.005915563 
-0.02273682 -0.01550247 -0.005673324 
-0.02284236 -0.01561129 -0.005438334 
-0.02295592 -0.01572837 -0.005211178 
-0.0230772 -0.01585341 -0.004992416 
-0.02320591 -0.01598611 -0.004782591 
-0.02334173 -0.01612614 -0.004582221 
-0.02348432 -0.01627315 -0.004391804 
-0.02363332 -0.01642678 -0.00421181 
-0.02374983 -0.01640899 -0.004159073 
-0.02361662 -0.01614385 -0.0128063 
-0.02348166 -0.01599013 -0.01261562 
-0.02335312 -0.01584372 -0.01241501 
-0.02323133 -0.015705 -0.01220495 
-0.02311658 -0.0155743 -0.01198597 
-0.02300917 -0.01545194 -0.01175861 
-0.02290935 -0.01533824 -0.01152343 
-0.02281736 -0.01523347 -0.01128101 
-0.02273345 -0.0151379 -0.01103196 
-0.02265782 -0.01505175 -0.01077689 
-0.02259065 -0.01497525 -0.01051644 
-0.02253212 -0.01490857 -0.01025124 
-0.02248236 -0.01485189 -0.009981956 
-0.0224415 -0.01480535 -0.009709254 
-0.02240964 -0.01476906 -0.009433809 
-0.02238686 -0.01474311 -0.009156303 
-0.02237321 -0.01472757 -0.008877423 
-0.02236874 -0.01472248 -0.008597859 
-0.02237345 -0.01472784 -0.008318304 
-0.02238732 -0.01474364 -0.008039449 
-0.02241033 -0.01476985 -0.007761987 
-0.02244242 -0.0148064 -0.007486603 
-0.02248351 -0.0148532 -0.007213979 
-0.02253349 -0.01491013 -0.006944791 
-0.02259225 -0.01497706 -0.006679705 
-0.02265963 -0.01505381 -0.006419378 
-0.02273547 -0.0151402 -0.006164453 
-0.02281959 -0.01523601 -0.005915563 
-0.02291177 -0.01534101 -0.005673324 
-0.02301179 -0.01545493 -0.005438334 
-0.0231194 -0.0155775 -0.005211178 
-0.02323433 -0.01570841 -0.004992416 
-0.02335629 -0.01584733 -0.004782591 
-0.02348499 -0.01599392 -0.004582221 
-0.0400685 -9.813952e-18 -0.02016364 
-0.04001869 0.00199725 -0.01931612 
-0.04001869 0.00199725 -0.02016364 
-0.03986939 0.003989534 -0.01931612 
-0.03986939 0.003989534 -0.02016364 
-0.03962097 0.0059719 -0.01931612 
-0.03962097 0.0059719 -0.02016364 
-0.03927404 0.007939419 -0.01931612 
-0.03927404 0.007939419 -0.02016364 
-0.03882947 0.009887199 -0.01931612 
-0.03882947 0.009887199 -0.02016364 
-0.03828837 0.0118104 -0.01931612 
-0.03828837 0.0118104 -0.02016364 
-0.03765208 0.01370423 -0.01931612 
-0.03765208 0.01370423 -0.02016364 
-0.03692217 0.015564 -0.01931612 
-0.03692217 0.015564 -0.02016364 
-0.03610047 0.01738507 -0.01931612 
-0.03610047 0.01738507 -0.02016364 
-0.03518902 0.01916292 -0.01931612 
-0.03518902 0.01916292 -0.02016364 
-0.03419008 0.02089313 -0.01931612 
-0.03419008 0.02089313 -0.02016364 
-0.03310615 0.02257139 -0.01931612 
-0.03310615 0.02257139 -0.02016364 
-0.03193991 0.02419354 -0.01931612 
-0.03193991 0.02419354 -0.02016364 
-0.03069425 0.02575554 -0.01931612 
-0.03069425 0.02575554 -0.02016364 
-0.02937229 0.0272535 -0.01931612 
-0.02937229 0.0272535 -0.02016364 
-0.0279773 0.02868371 -0.01931612 
-0.0279773 0.02868371 -0.02016364 
-0.02651276 0.03004261 -0.01931612 
-0.02651276 0.03004261 -0.02016364 
-0.0249823 0.03132682 -0.01931612 
-0.0249823 0.03132682 -0.02016364 
-0.02338973 0.03253314 -0.01931612 
-0.02338973 0.03253314 -0.02016364 
-0.02173902 0.03365858 -0.01931612 
-0.02173902 0.03365858 -0.02016364 
-0.02003425 0.03470034 -0.01931612 
-0.02003425 0.03470034 -0.02016364 
-0.01827968 0.03565583 -0.01931612 
-0.01827968 0.03565583 -0.02016364 
-0.01647966 0.03652267 -0.01931612 
-0.01647966 0.03652267 -0.02016364 
-0.01463867 0.03729872 -0.01931612 
-0.01463867 0.03729872 -0.02016364 
-0.01276128 0.03798203 -0.01931612 
-0.01276128 0.03798203 -0.02016364 
-0.01085217 0.03857091 -0.01931612 
-0.01085217 0.03857091 -0.02016364 
-0.00891608 0.0390639 -0.01931612 
-0.00891608 0.0390639 -0.02016364 
-0.006957822 0.03945977 -0.01931612 
-0.006957822 0.03945977 -0.02016364 
-0.004982266 0.03975753 -0.01931612 
-0.004982266 0.03975753 -0.02016364 
-0.002994323 0.03995646 -0.01931612 
-0.002994323 0.03995646 -0.02016364 
-0.0009989354 0.04005605 -0.01931612 
-0.0009989354 0.04005605 -0.02016364 
0.0009989354 0.04005605 -0.01931612 
0.0009989354 0.04005605 -0.02016364 
0.002994323 0.03995646 -0.01931612 
0.002994323 0.03995646 -0.02016364 
0.004982266 0.03975753 -0.01931612 
0.004982266 0.03975753 -0.02016364 
0.006957822 0.03945977 -0.01931612 
0.006957822 0.03945977 -0.02016364 
0.00891608 0.0390639 -0.01931612 
0.00891608 0.0390639 -0.02016364 
0.01085217 0.03857091 -0.01931612 
0.01085217 0.03857091 -0.02016364 
0.01276128 0.03798203 -0.01931612 
0.01276128 0.03798203 -0.02016364 
0.01463867 0.03729872 -0.01931612 
0.01463867 0.03729872 -0.02016364 
0.01647966 0.03652267 -0.01931612 
0.01647966 0.03652267 -0.02016364 
0.01827968 0.03565583 -0.01931612 
0.01827968 0.03565583 -0.02016364 
0.02003425 0.03470034 -0.01931612 
0.02003425 0.03470034 -0.02016364 
0.02173902 0.03365858 -0.01931612 
0.02173902 0.03365858 -0.02016364 
0.02338973 0.03253314 -0.01931612 
0.02338973 0.03253314 -0.02016364 
0.0249823 0.03132682 -0.01931612 
0.0249823 0.03132682 -0.02016364 
0.02651276 0.03004261 -0.01931612 
0.02651276 0.03004261 -0.02016364 
0.0279773 0.02868371 -0.01931612 
0.0279773 0.02868371 -0.02016364 
0.02937229 0.0272535 -0.01931612 
0.02937229 0.0272535 -0.02016364 
0.03069425 0.02575554 -0.01931612 
0.03069425 0.02575554 -0.02016364 
0.03193991 0.02419354 -0.01931612 
0.03193991 0.02419354 -0.02016364 
0.03310615 0.02257139 -0.01931612 
0.03310615 0.02257139 -0.02016364 
0.03419008 0.02089313 -0.01931612 
0.03419008 0.02089313 -0.02016364 
0.03518902 0.01916292 -0.01931612 
0.03518902 0.01916292 -0.02016364 
0.03610047 0.01738507 -0.01931612 
0.03610047 0.01738507 -0.02016364 
0.03692217 0.015564 -0.01931612 
0.03692217 0.015564 -0.02016364 
0.03765208 0.01370423 -0.01931612 
0.03765208 0.01370423 -0.02016364 
0.03828837 0.0118104 -0.01931612 
0.03828837 0.0118104 -0.02016364 
0.03882947 0.009887199 -0.01931612 
0.03882947 0.009887199 -0.02016364 
0.03927404 0.007939419 -0.01931612 
0.03927404 0.007939419 -0.02016364 
0.03962097 0.0059719 -0.01931612 
0.03962097 0.0059719 -0.02016364 
0.03986939 0.003989534 -0.01931612 
0.03986939 0.003989534 -0.02016364 
