ply
format ascii 1.0
comment VCGLIB generated
element vertex 735
property float x
property float y
property float z
property float nx
property float ny
property float nz
element face 0
property list uchar int vertex_indices
end_header
0.1348085 -0.1406788 -0.1906713 0.8253803 -0.09996668 0.5466469 
0.1756471 -0.6776959 -0.3427621 -0.5361636 -0.5662255 -0.5965117 
-0.003258992 0.1192933 -0.2854028 0.02373164 0.7816209 -0.6135767 
-0.1205643 -0.2994613 0.1983749 0.9712911 -0.09224009 0.2020295 
0.00848983 0.8669184 0.3409432 0.2258548 0.914174 -0.3225172 
0.1226595 -0.1115339 -0.2710491 0.9103585 0.01571091 -0.4130725 
-0.1056384 -0.1741603 -0.1930213 0.3447711 -0.4168366 0.8218037 
-0.06409265 0.2275698 0.04607613 -0.8168352 0.5451862 -0.1867577 
0.01975738 0.5332333 0.190323 0.9279833 0.1481015 -0.3396711 
0.01632095 -0.08205313 -0.2437383 -0.5692877 -0.7834148 -0.2321102 
-0.1792675 -0.6635178 -0.3489335 0.6721649 -0.3201038 -0.6337579 
0.1208482 -0.02014613 -0.2296028 0.9553913 0.273116 -0.1076117 
0.1518205 -0.2251607 0.1935554 0.7343462 0.2405454 0.6296796 
-0.1146218 -0.05628363 -0.03046275 -0.8756422 -0.474302 0.07496685 
0.1583366 -0.3495727 0.2103695 0.550336 -0.1691929 0.8168106 
-0.1814649 -0.4840494 -0.3159168 -0.9416641 0.1304148 0.2967249 
-0.02479348 0.8865128 0.3849799 0.2688588 0.9511316 0.1371836 
0.06188302 0.214191 0.1137522 0.8406993 0.5138011 0.1709123 
-0.1664964 -0.1209259 0.1576053 -0.9891972 -0.003246467 -0.1277474 
-0.03870584 0.3031938 0.231281 -0.9622906 -0.02079 0.2698258 
-0.0105311 0.1226729 0.2097497 -0.1966994 -0.2028565 0.95077 
0.1074268 -0.2611951 0.1990404 -0.8952202 -0.03696943 0.407728 
-0.04202436 0.3256196 0.112071 -0.9439003 0.2076076 -0.253365 
-0.1245718 -0.1269712 -0.2875402 -0.8434598 0.02197489 -0.5361437 
0.1142131 -0.2218081 0.2037065 -0.2540761 0.07322423 0.964238 
0.002761212 -0.281624 -0.4050775 -0.1187912 -0.1633084 0.9793149 
-0.1616523 -0.1337781 0.1420981 -0.9327629 -0.03962104 -0.3544683 
-0.1250593 -0.01524386 -0.09654317 -0.8695945 -0.3816835 -0.3117496 
-0.1280758 -0.2680242 0.2084924 0.4297414 0.08596373 0.8978686 
0.09256884 -0.2902231 -0.2868981 -0.973339 -0.07616889 -0.187486 
0.111918 -0.00148312 -0.1096589 0.8714405 -0.2708755 -0.4063967 
-0.1927888 -0.7407237 0.2022103 0.1818903 -0.3898466 -0.8568298 
0.131023 -0.2637262 -0.3050332 0.8233597 0.3178567 -0.4683071 
-0.03411381 0.5606556 0.2145417 -0.9799533 0.07412621 -0.1744944 
0.0218217 -0.3866423 -0.4773864 0.8577234 0.1697724 -0.4716516 
0.1255353 -0.4439312 -0.3115248 -0.944595 -0.2306555 0.1135835 
0.1586736 -0.3867714 -0.2993925 0.8647315 0.01559715 0.5009946 
0.02550875 -0.1215436 -0.0891438 0.475752 -0.8236381 -0.307694 
-0.1205983 -0.00563517 -0.2627286 -0.9268501 0.2491009 -0.2764002 
-0.1309252 -0.1024465 0.2027393 -0.3778497 0.08515601 0.9155268 
0.09377441 -0.07016575 -0.01583217 0.8113755 -0.5578982 0.168511 
0.04018265 0.1986765 0.1885596 0.8530054 0.09195542 0.5050083 
-0.03749595 0.3220355 0.2361783 -0.9473551 -0.01818082 0.3194654 
-0.0402889 0.2082138 0.2130587 -0.8643594 -0.04999029 0.4965395 
-0.1051881 0.1661066 0.100729 -0.9082283 0.3853779 -0.1510959 
-0.0360307 0.5531794 0.2363687 -0.9957101 0.005437668 0.06134134 
-0.1054334 -0.08261041 0.06527635 -0.4164819 -0.6193658 -0.6487554 
-0.1074725 -0.04562446 -0.106053 -0.8643608 -0.3990037 -0.303708 
0.2295506 -0.7515565 -0.2943403 0.3883528 -0.866519 -0.2027633 
-0.1293087 0.09110561 0.1260455 -0.9667598 0.1379915 -0.2128112 
-0.1704693 -0.2694817 0.1451209 -0.6065057 0.01293175 -0.7722831 
-0.01002372 0.4670626 0.1164368 -0.4548026 0.3742542 -0.7272767 
0.2134925 -0.6480237 -0.3393024 0.9486379 0.1061766 -0.2750425 
-0.04831192 -0.06069608 -0.3023638 0.5756598 -0.413402 -0.6987288 
-0.1666177 -0.640752 -0.3237407 0.922017 -0.07716022 0.2390317 
-0.006096217 0.8280575 0.261273 -0.1772128 0.686693 -0.6867891 
0.1245144 0.0133345 -0.007934488 0.9435685 -0.1499805 0.2840641 
-0.166942 -0.4064907 0.2090404 -0.3711416 -0.03301879 0.923877 
0.1549297 -0.4961637 0.2124112 0.3072893 0.06490524 0.9490357 
-0.05277762 -0.08340097 -0.2953878 0.7629795 -0.3134158 -0.5632908 
-0.2122099 -0.7492618 0.2218685 -0.430232 -0.8600203 -0.1598382 
0.1673829 -0.4436523 -0.31951 0.9917358 0.1060348 -0.05124081 
-0.04862504 0.7986406 0.4325961 -0.9209479 -0.3431911 0.18149 
0.1041304 0.007429844 -0.2656805 0.9036041 0.3024197 -0.3027388 
0.2077708 -0.7165563 0.2274347 0.939404 0.3088724 0.09604914 
-0.1360013 0.07444546 -0.08818187 -0.9272525 0.2961242 -0.220132 
0.1097185 0.01970276 -0.1270549 0.8685565 -0.2330171 -0.4358966 
-0.1288154 -0.1595224 -0.2837315 -0.8057176 0.08450235 -0.5854732 
-0.1770266 -0.6527382 -0.3078986 0.728297 -0.03670417 0.682147 
-0.1509756 -0.2590359 -0.2891916 -0.8418008 0.2573948 -0.4726459 
0.1052567 -0.2238157 0.1996706 -0.6563491 -0.07761796 0.7360938 
-0.1377858 0.05948704 0.2246293 -0.8909094 -0.04840142 0.4204714 
0.07828173 0.1898662 0.06390939 0.8863276 0.4490309 -0.1040684 
0.09945583 -0.3022609 -0.3141102 -0.938106 0.06296533 -0.3280457 
0.1365928 -0.3689956 0.2120512 -0.297977 -0.19003 0.9157084 
0.03999288 0.8707042 0.3706697 0.8844515 0.2933234 0.2963904 
0.09207971 -0.03646753 -0.1309072 0.9747009 -0.1836508 0.03014863 
0.04953334 -0.04942571 -0.3227907 -0.6510605 -0.32452 -0.6832682 
-0.1877073 -0.3271198 0.1910031 -0.9375218 0.04354262 0.3257333 
-0.1478502 -0.1067232 -0.200256 -0.9842228 0.06002373 0.1583167 
0.1016579 -0.01976744 -0.1567577 0.8427982 0.3356524 0.4162479 
0.2098588 -0.7310799 0.2170271 0.9804316 0.0996694 -0.1280499 
-0.09965409 -0.1649661 -0.3093447 0.2157687 -0.2342524 -0.9409679 
-0.179798 -0.7003073 0.2418084 -0.07532294 0.5344176 0.7560555 
0.003922726 -0.3636743 -0.4793582 -0.122305 0.2919982 -0.9470521 
0.1443557 -0.1372479 0.1257023 0.925235 -0.04003974 -0.3740313 
0.1349485 -0.6079361 0.2065845 -0.9859276 0.05593409 -0.07304409 
0.1539143 -0.4780589 -0.3526368 0.1888431 0.01233216 -0.8995461 
0.115477 -0.4109685 -0.3277127 -0.9367946 -0.2106819 -0.2597046 
-0.09837236 0.1124958 -0.171803 -0.8758143 0.4502242 -0.1628636 
-0.139202 -0.4338129 -0.3018493 0.6621271 -0.3027087 0.5715891 
-0.1502376 -0.1692423 -0.2034182 -0.9462742 -0.03828502 0.3017482 
-0.03441022 0.5258006 0.2481335 -0.9875344 0.0001426956 0.1541377 
0.09310079 0.1048583 0.2239829 0.02772791 0.4424807 0.8834976 
-0.04757741 0.2780532 0.09260079 -0.9581116 0.2407254 -0.1340122 
-0.2151717 -0.7118274 -0.2668099 -0.06789417 0.7983711 0.5816082 
0.01386591 0.4685662 0.2829729 0.9154407 -0.03129838 0.399059 
-0.179728 -0.2639751 0.1655214 -0.9554963 0.2474137 -0.1503579 
0.1236154 0.02760623 -0.1028905 0.9124905 -0.1765854 -0.3629372 
0.1344789 -0.1308348 -0.2439245 0.9457076 0.1265734 -0.2938991 
-0.05391039 0.02296801 0.2183809 0.3248077 0.01380171 0.9437944 
-0.1024246 -0.292651 -0.2640559 0.932927 -0.2884509 0.1643416 
-0.004017351 -0.2648001 -0.4046361 -0.2787857 -0.1062082 0.9418603 
-0.0202918 -0.1061337 -0.3862062 -0.7878899 0.1744226 -0.5886623 
-0.2310283 -0.7066618 -0.2930946 -0.6661103 0.7012172 0.1668436 
0.02099356 0.2794011 0.2429406 0.8987237 -0.08071549 0.4229155 
0.2044632 -0.6076992 -0.3298592 0.9586058 0.2505323 0.1179357 
0.2102007 -0.7358041 -0.2491366 0.2693035 0.2215629 0.9370619 
-0.02335723 0.5148522 0.1650852 -0.9120814 0.1703099 -0.3724086 
-0.02902014 -0.3688976 -0.4596569 -0.8967761 -0.3679783 0.1402678 
0.1342954 -0.2229245 0.2038708 0.2115551 0.1265208 0.9664512 
0.02296199 -0.08747225 -0.2443988 -0.6936286 -0.6881799 -0.1799049 
-0.157187 -0.5640777 -0.3189263 0.9508859 -0.1561403 0.252531 
-0.09073327 -0.09157731 -0.04287688 -0.6657268 -0.7396969 0.03098604 
0.01115649 0.3110794 0.04040067 0.9329725 0.1847549 -0.3039715 
-0.1343871 -0.3262475 -0.3485743 -0.08575749 0.2097173 -0.9397762 
-0.1588399 -0.5369959 -0.3414951 0.7790014 -0.06960844 -0.5716397 
0.1281139 0.0717335 -0.07852358 0.9301355 0.3014661 -0.173545 
-0.03717813 0.5199038 0.2251635 -0.997297 0.02358644 0.04317858 
0.1552223 -0.2251137 0.1864806 0.9105074 0.2543606 0.3174182 
-0.1764755 -0.6732249 -0.3087444 0.8376158 -0.2083564 0.4793337 
-0.06199313 -0.08380252 -0.1413035 -0.4323946 -0.8145331 -0.3859832 
-0.0440382 0.3473696 0.1987741 -0.9929458 0.0556386 0.09559973 
0.09142998 -0.0778389 -0.03055149 0.818584 -0.5618482 0.1108122 
0.1516063 -0.7464287 0.2295367 -0.7128809 -0.6177642 -0.1355269 
0.0733397 -0.1814298 -0.2815725 -0.8450243 -0.2565275 -0.4583208 
0.03233467 0.3238491 0.2052578 0.9887015 0.02570373 0.1459184 
-0.1039447 0.1480509 0.06201059 -0.9430797 0.2863277 -0.1537697 
-0.1262201 -0.1976765 -0.2976389 -0.7588677 0.1967392 -0.6161977 
-0.01628404 0.7389278 0.3575262 -0.6363238 -0.5197833 0.5457535 
-0.1075891 0.1398873 0.07329662 -0.9607701 0.224142 -0.1570442 
-0.09954433 -0.08259118 -0.03870677 -0.8203533 -0.5625516 0.0222106 
0.106934 0.06558461 -0.1422482 0.9196417 0.1465415 -0.3609135 
-0.149848 -0.4930673 -0.3099024 0.6004532 -0.1341798 0.7838728 
0.08267526 0.1546565 -0.0462795 0.792534 0.606132 -0.05232935 
-0.1055481 -0.3262039 -0.3026953 0.9902185 -0.07152896 -0.08619609 
-0.1375479 0.02979648 0.2070586 -0.9714293 -0.1073302 0.2090629 
0.1135443 -0.239465 -0.3173053 0.4209898 0.3774226 -0.7892481 
0.1438346 -0.3857346 0.2105029 -0.09550136 -0.05637939 0.992799 
0.04131942 0.9043486 0.3428515 0.9097022 -0.03584617 -0.3136956 
-0.05872538 -0.09692224 -0.1850734 0.4710746 -0.7110845 0.5062104 
-0.133628 -0.331862 -0.2582767 -0.09324913 -0.2938613 0.928938 
-0.03118408 0.5757174 0.2688717 -0.9721133 -0.02817667 0.2323615 
-0.1744097 -0.5981203 -0.3539118 0.6711273 -0.005668219 -0.7166435 
0.07786596 -0.2032528 -0.2792386 -0.8711813 -0.2121098 -0.4375629 
0.09634551 -0.2763354 -0.3005372 -0.9417341 -0.02260536 -0.3188075 
0.1631065 -0.378347 -0.3238301 0.9680531 0.05502693 -0.1964635 
0.1000084 -0.166357 0.1232924 -0.5353508 -0.4362638 -0.708656 
0.1497363 -0.6673956 0.1873202 -0.6248048 -0.4139548 -0.6353074 
-0.1939603 -0.5538073 -0.3168921 -0.7446916 0.1691301 0.6011381 
-0.05303875 0.1719771 -0.1320975 -0.5936432 0.7633607 -0.2546634 
0.007450891 0.6981084 0.2150974 0.9046607 0.07761586 -0.4188418 
0.1361898 -0.4846157 -0.3354716 -0.8810171 -0.1868993 -0.3865246 
-0.01381015 -0.200806 -0.3908439 -0.2796749 -0.3149293 0.8814199 
0.117753 -0.0232196 -0.1763136 0.8289737 0.4045205 0.3725656 
0.1403828 -0.1647465 -0.2434553 0.9578403 0.1487545 -0.238506 
-0.01755987 0.7219098 0.2204686 -0.8600113 0.1731732 -0.4752492 
-0.1728066 -0.6207849 -0.351198 0.7402443 -0.04008334 -0.6567147 
-0.06181398 -0.116829 -0.2876317 0.8095621 -0.3621211 -0.4604031 
-0.1276856 0.1273572 0.1785318 -0.9342532 0.3497047 0.02752817 
-0.1083284 -0.05954253 -0.1449061 -0.3856292 -0.2993304 0.8524472 
0.01961422 -0.3367374 -0.4191747 0.8517077 -0.1712337 0.3418537 
0.0123999 0.6010744 0.1947916 0.8924121 0.110267 -0.4333274 
-0.1143756 -0.3431088 -0.2731928 0.7717963 -0.2789665 0.5425555 
0.1741337 -0.6699886 0.1802439 0.1405489 -0.5321528 -0.8181391 
0.02175861 0.6169022 0.2637362 0.9809632 -0.02727336 0.1920076 
0.0002503044 -0.1977972 -0.4374415 0.1225 0.3450673 -0.918068 
-0.1530534 -0.1587877 -0.2189894 -0.9912534 0.0811091 0.0482928 
0.02546324 0.1723665 0.2091186 0.6811663 -0.1710957 0.705646 
0.02259658 -0.1320995 0.1400382 -0.08940041 -0.9871206 0.08535156 
0.09268998 -0.2801671 -0.2492678 -0.8267133 -0.3281194 0.4095553 
-0.02438306 0.1117232 -0.2908319 -0.2480021 0.7113335 -0.6518328 
0.04862909 -0.1043732 0.0382337 0.6270319 -0.7769918 -0.04183459 
-0.05348095 0.05090203 -0.3298646 -0.4602175 0.5116776 -0.7245257 
0.1367532 -0.4235131 0.2033085 -0.8074778 -0.07169195 0.5727051 
-0.1420496 0.009562703 0.1745797 -0.9903987 0.03276112 0.1105139 
0.09663823 0.1426747 0.1936745 0.4234549 0.6349486 0.6028423 
-0.1905535 -0.5902176 -0.3642002 -0.1471454 0.1531426 -0.9344469 
0.02413529 0.5267265 0.245312 0.9915464 0.04477223 0.1021544 
-0.01990708 0.7639177 0.5233186 -0.697964 -0.6782587 0.05039608 
-0.09446782 -0.2523937 -0.2681959 0.9704106 -0.1887161 -0.1340155 
0.04128744 0.8639011 0.3658818 0.878284 0.3732384 0.1999379 
0.07021634 -0.07652631 -0.3276025 -0.1003093 -0.2013926 -0.9693729 
0.08114325 -0.06824286 -0.1505373 0.1361777 -0.5558192 0.7589196 
0.08491564 -0.1029683 0.08500659 0.07185061 -0.7311368 -0.6487164 
0.1209394 -0.07056718 -0.1604823 0.6972634 0.02013093 0.699873 
-0.03176345 0.6205202 0.2720293 -0.978074 -0.0229054 0.2069926 
0.02519684 0.1130088 -0.2820207 0.4182878 0.6626037 -0.6178193 
0.1017336 0.03992773 -0.2043854 0.973924 0.2225386 0.01630997 
0.1633655 -0.6315534 -0.3507009 -0.803408 -0.07449344 -0.5896088 
-0.00253077 0.7390354 0.3596252 0.3157497 -0.5430681 0.7757488 
0.174209 -0.4810674 0.1890329 0.962431 0.01264094 0.2145722 
0.06509982 -0.124338 0.1943241 -0.5370721 -0.3843884 0.7417912 
-0.1191356 0.1460865 0.173677 -0.8050117 0.5413352 0.1621404 
-0.1520951 -0.5736307 0.1931086 0.9039316 0.05311528 -0.4182567 
-0.02946144 0.2864832 0.04359884 -0.85883 0.3904427 -0.3288087 
0.1451092 -0.2119663 -0.2483452 0.9982177 0.04789873 -0.02764802 
0.0371169 0.7905172 0.4031929 0.94894 -0.2743057 -0.1515115 
0.1023732 0.1031446 -0.1202098 0.8575516 0.4642344 -0.2214336 
-0.07805923 0.2052915 0.1269571 -0.7766743 0.6015769 0.1675714 
0.0221814 0.5447094 0.2556507 0.9837146 1.504144e-06 0.1770663 
0.1683189 -0.6948614 0.2377794 0.2915299 0.4310499 0.8353224 
-0.1630141 -0.4443394 0.2110156 -0.1705099 0.04129504 0.977005 
0.1249869 -0.00292123 0.1989574 0.9122971 -0.1612382 0.3750114 
-0.1117729 0.01387179 -0.2700216 -0.9077919 0.3245946 -0.2630629 
-0.1775034 -0.4974216 -0.3082883 -0.7525893 0.05278757 0.6518491 
-0.1482072 -0.1281955 0.1124676 -0.8661085 -0.1409911 -0.4790939 
-0.1576779 -0.6044078 0.2255875 0.4042748 0.1248878 0.894119 
-0.03010558 0.8163534 0.5167856 -0.7735555 0.5245554 0.2393177 
-0.1548475 -0.5989401 0.2231236 0.480579 0.1234121 0.8407791 
-0.03709159 0.4229548 0.2388586 -0.9763085 -0.01252815 0.2153998 
0.1190816 0.03406928 0.007491461 0.9385042 -0.006868739 0.3405522 
-0.1210739 -0.1476409 0.1058208 0.250045 -0.4151049 -0.849461 
0.08738065 -0.1723228 -0.1928679 -0.4615568 -0.3838188 0.7972876 
0.03051115 0.01413077 -0.3405793 0.2645983 -0.1332641 -0.9534974 
-0.09993935 -0.2332678 -0.2935078 0.892704 -0.04275701 -0.4281584 
-0.1348211 -0.1296482 0.2036139 -0.3943445 0.04395849 0.9172348 
0.0940534 -0.06254645 0.2080789 0.3442894 -0.1272223 0.9238558 
0.07997236 -0.2106331 -0.220378 -0.6982477 -0.338701 0.6121998 
0.09528688 0.1613841 0.09912735 0.9149486 0.3796685 -0.1355082 
-0.1781745 -0.3516445 0.2035682 -0.7675672 -0.04411831 0.6357209 
0.1532419 -0.3233121 -0.3146363 0.930854 0.2803035 -0.2336001 
-0.007076568 0.757279 0.5178759 -0.05512875 -0.9898244 0.06890613 
-0.1913978 -0.5858236 -0.3080134 -0.4990591 0.1095717 0.8424568 
-0.116557 0.1170832 -0.0717807 -0.83004 0.5451393 -0.1149382 
0.1180702 0.09145564 0.1245062 0.9514481 0.1564316 -0.2619091 
0.1461078 -0.6864804 0.2228403 -0.8638862 -0.2297326 0.1682606 
0.0281677 0.7901717 0.3226318 0.9850539 -0.162132 0.02654278 
0.1337391 -0.2463771 0.2081192 0.1489948 0.1872729 0.9709088 
0.1618015 -0.2563315 0.1953227 0.8318731 0.2947801 0.4667312 
0.09276633 -0.1390773 -0.3109795 0.2580518 -0.1256711 -0.9324152 
-0.02729045 0.4389916 0.1394417 -0.9187886 0.1766566 -0.3522336 
-0.03492093 0.1825265 -0.133626 -0.3402432 0.8850411 -0.2998502 
0.01857103 0.3067609 0.06232547 0.8862078 0.3104489 -0.3432093 
0.02246811 0.6602987 0.2668666 0.9940642 -0.00150514 0.1077158 
-0.02618591 0.5219486 0.2844806 -0.9483225 -0.01021624 0.3165446 
0.03177934 -0.1318323 0.1529789 -0.1205539 -0.9830911 0.1212997 
-0.09872603 -0.2480585 -0.2877462 0.936983 -0.09445785 -0.3324187 
-0.154297 -0.6780951 0.2219469 0.9339528 -0.2898693 0.03283642 
-0.1000735 0.1493102 0.03713834 -0.9433215 0.3127811 -0.09352356 
0.01907261 0.4169298 0.2644053 0.9482079 -0.03649984 0.3154532 
0.02286715 0.684356 0.262298 0.9975491 -0.01602792 0.04222453 
0.1369666 -0.3505138 0.1625601 -0.5107247 -0.2249186 -0.8266498 
-0.01769684 0.4510823 0.1180919 -0.9105561 0.1901738 -0.3597046 
-0.1350745 0.02932748 0.21496 -0.9082205 -0.1694968 0.3614782 
-0.01855521 0.3075939 0.02744535 -0.9259571 0.2683171 -0.255509 
-0.1545398 -0.2837408 0.2168924 -0.1395297 0.2022816 0.9681473 
0.2261709 -0.7515965 -0.2717793 0.1317268 -0.9790561 0.1118713 
-0.1176765 0.07716102 0.02883126 -0.9601596 0.1922705 0.1938339 
0.1747385 -0.6759337 0.1846691 0.1123591 -0.5778697 -0.7943934 
0.01217394 0.7651381 0.4929428 0.8066109 -0.5637089 0.08550531 
0.1570858 -0.3177933 0.2165508 0.3686378 -0.02795268 0.9238991 
-0.1527869 -0.06264085 0.09893577 -0.8818089 -0.02686781 -0.4639511 
-0.06600641 -0.08003526 -0.1447607 -0.442964 -0.8160507 -0.3593085 
0.155928 -0.270892 0.2060267 0.4720389 0.2754726 0.8311896 
-0.1380891 -0.09007298 -0.2607369 -0.9462475 0.110869 -0.3021598 
0.1700519 -0.4945952 0.2008397 0.8270488 0.06042908 0.5110878 
0.1016013 -0.05736006 -0.1482813 0.5157143 -0.1129552 0.782164 
0.1350709 -0.01405449 0.1436001 0.9618174 0.2487425 0.08619067 
0.1490617 -0.3953722 0.1646484 -0.3416392 -0.168831 -0.9207432 
0.05371877 -0.09892164 0.1986813 -0.1908215 -0.340954 0.9204218 
0.02879706 0.0208014 -0.3415959 0.2763492 -0.04007793 -0.9452612 
0.09185076 0.1457719 0.04975564 0.9566564 0.2328778 -0.173 
-0.1186337 -0.05566796 0.2048391 -0.4397928 -0.02504913 0.8910146 
-0.0710586 0.1484705 -0.1576659 -0.6896993 0.6982257 -0.1885782 
-0.02761216 -0.1034225 0.1895081 0.1232433 -0.6235106 0.7675861 
-0.1408039 0.03921494 0.1673541 -0.9980537 0.04737641 -0.04051885 
-0.1635637 -0.1621504 0.1483816 -0.9602197 -0.005719673 -0.2781441 
-0.1091317 -0.1239015 -0.3086875 -0.7408291 -0.03126344 -0.6697291 
-0.2184651 -0.6247419 -0.3391862 -0.8923218 0.2480991 -0.3744214 
-0.08426726 -0.06985125 -0.1378539 -0.5497292 -0.7678114 0.0789668 
-0.1033334 -0.07619891 -0.03474055 -0.8515137 -0.5201503 0.06152645 
-0.1139205 0.1083617 0.01011544 -0.9219618 0.3575091 0.1408295 
-0.01256798 0.7598518 0.2279946 -0.5984217 0.2915109 -0.7071747 
-0.156903 -0.05265868 0.1080542 -0.9376096 0.08270723 -0.3287115 
-0.1217585 0.09803843 -0.009705863 -0.9283618 0.3290025 0.1693058 
-0.06478544 0.1688438 0.1885238 -0.3843237 0.4800993 0.7810951 
0.1201929 -0.2974496 -0.3396403 -0.01983957 0.4957672 -0.8630035 
0.1446624 -0.2948526 -0.2645798 0.92875 -0.0462558 0.3610921 
-0.1349174 0.006486136 -0.009771509 -0.9300593 -0.138918 0.3391176 
-0.08414967 0.1990302 0.07710379 -0.8644675 0.4925006 -0.07347794 
0.1794784 -0.5509544 -0.3519455 0.7364043 0.2275675 -0.606381 
-0.1473961 -0.3298069 0.2186319 0.1362576 -0.1256075 0.9637312 
0.0379455 0.1087087 -0.2782789 0.4227806 0.6813508 -0.5971436 
0.1779695 -0.3046974 0.1865416 0.9929904 -0.02394565 0.1141463 
-0.1117454 -0.2273761 -0.311361 0.4152825 0.1773639 -0.8036764 
-0.1927088 -0.6441855 -0.3625331 0.2490263 -0.1426723 -0.9285173 
-0.08623285 -0.1650253 0.1678588 0.9056906 -0.4173491 -0.07328832 
0.0755189 -0.1019409 -0.1683476 -0.3980712 -0.4332963 0.8053898 
-0.03508376 0.8168822 0.4962563 -0.8992954 0.2986959 0.2902856 
-0.09634929 -0.1613393 -0.1911511 0.4905569 -0.3976615 0.7747146 
-0.09210087 -0.2451185 -0.2504093 0.9241917 -0.3305694 0.19089 
0.004778481 0.2105591 0.2408988 0.3621944 -0.2530296 0.8787661 
-0.1672424 -0.4178538 0.2084151 -0.1753851 0.000259869 0.9840877 
-0.136048 -0.325866 0.2156623 0.5477194 -0.1492802 0.807824 
0.004897159 -0.1301201 -0.3774524 0.8475492 -0.04802576 0.5092177 
-0.1496038 -0.2938181 -0.3137756 -0.8253293 0.3377101 -0.4499812 
0.1285671 -0.4359913 -0.3005154 -0.6338959 -0.3445266 0.6664023 
0.003800581 -0.3794541 -0.4832282 -0.01200558 0.116902 -0.9706174 
-0.05335889 -0.1233634 -0.251782 0.9141377 -0.382929 -0.1090201 
-0.07022242 -0.1664245 -0.2585664 0.9005765 -0.3457876 -0.2602716 
-0.04109427 0.4130885 0.194466 -0.9983206 0.03485106 0.02512502 
0.008183846 -0.3850619 -0.4847524 0.1458523 0.01664628 -0.9652988 
0.02211702 -0.3434265 -0.455019 0.9716825 0.07201806 -0.1788746 
-0.1003528 -0.07070293 0.04224761 -0.7474801 -0.5808942 -0.3094857 
-0.1145008 -0.04366922 0.02955158 -0.8969354 -0.3824398 -0.1467645 
0.03462189 0.7895357 0.3909948 0.9086519 -0.3650725 -0.1845689 
-0.06241518 -0.1471238 -0.2556771 0.9218009 -0.3434667 -0.145387 
-0.04824034 0.06931572 -0.3184597 -0.3996713 0.5747838 -0.7108405 
-0.004856541 0.7606543 0.5488533 0.1244748 -0.9417106 0.1950545 
0.1013674 0.1223062 0.07693549 0.9672275 0.174118 -0.1846182 
0.1996348 -0.7082927 0.2323293 0.7131477 0.5395569 0.4271624 
0.1263493 0.06631377 -0.0917028 0.9322485 0.240068 -0.2638041 
-0.1440854 -0.175523 0.1137403 -0.3393625 -0.2122231 -0.9122459 
-0.2079392 -0.5950945 -0.3443456 -0.8841041 0.2265546 -0.3981557 
0.07469641 0.1532316 -0.09068954 0.7534133 0.6177787 -0.2251428 
-0.1293301 -0.02282179 0.2015699 -0.800055 -0.1986187 0.5598576 
-0.08322973 0.03075181 -0.3169902 -0.685441 0.4046893 -0.6052099 
0.1213873 -0.03682769 -0.247871 0.968443 0.1789843 -0.1729222 
0.1017187 0.01935344 -0.2612294 0.9120421 0.3109598 -0.2670805 
-0.0385827 0.4787355 0.2260923 -0.9963782 0.03443279 0.07393337 
-0.08509003 -0.03671418 0.2173534 0.01618918 -0.2416163 0.9700173 
0.1960576 -0.5932165 -0.3469868 0.8469169 0.2674934 -0.4589627 
0.1591054 -0.3482147 -0.3082525 0.9807405 0.1559885 0.1097159 
0.01903151 -0.3803397 -0.4579112 0.8287022 -0.4041966 0.3507737 
-0.03389466 0.5021185 0.2535594 -0.9825823 0.01637557 0.1804403 
-0.1110269 -0.360734 -0.2854877 0.8291962 -0.2766362 0.4741066 
-0.0987112 0.06714137 -0.2517273 -0.9092786 0.3336009 -0.2483927 
-0.1657799 -0.6469923 -0.3332014 0.951128 -0.2830607 -0.01144663 
-0.03294982 0.5228038 0.1928809 -0.9515136 0.1217716 -0.2806138 
0.0204878 -0.319382 -0.4237047 0.9956981 -0.0198021 -0.07521856 
-0.08606832 -0.1849938 -0.2851918 0.8353275 -0.2580589 -0.4807037 
0.09468119 -0.3054505 -0.2966758 -0.9801559 0.002126304 -0.1805452 
0.01887177 0.4124619 0.1311837 0.9068385 0.1817468 -0.3800856 
0.02412394 0.5426769 0.2099696 0.9888134 0.05030958 -0.1296448 
-0.1140688 0.08446174 0.05188736 -0.9893235 0.1188699 -0.0706144 
-0.116168 0.06945765 0.06316185 -0.9875038 0.1031091 -0.06992111 
-0.07032107 0.1551361 -0.1363449 -0.6991156 0.6846452 -0.2047334 
0.1756229 -0.4761198 0.1835335 0.9949344 0.01767637 0.03915482 
-0.02435057 0.7757421 0.5526608 -0.8053675 -0.4772547 0.2807358 
0.114358 -0.0009338155 -0.2132699 0.9366934 0.3455972 0.0347212 
0.131058 -0.06903516 -0.1772325 0.9584278 0.1269905 0.2505926 
-0.07277122 -0.1429449 0.1738385 0.688852 -0.6359419 0.3145868 
0.1100124 -0.147539 0.2062901 0.1136906 0.0001860373 0.9900198 
0.1300127 -0.3080036 -0.2506254 0.4058915 -0.3143881 0.857514 
-0.09030525 -0.08563221 -0.0863556 -0.6671198 -0.6642283 -0.3156106 
0.1945096 -0.6085667 -0.3107108 0.5780017 0.2228663 0.7790307 
0.0751825 0.03662748 -0.3088751 0.8045588 0.3548209 -0.4710418 
-0.1208172 0.1441868 0.1467838 -0.9209282 0.3658874 -0.1014299 
-0.09155165 0.1610651 0.007781086 -0.9116831 0.4027053 -0.06747897 
0.1136016 0.003835902 0.05779483 0.9321542 0.1745623 -0.3111582 
-0.08174492 -0.09215388 0.0174967 -0.5861776 -0.8018501 0.09298284 
-0.04895998 -0.04176737 -0.3140766 0.3921837 -0.3622705 -0.837763 
0.04377504 0.2354945 0.1666553 0.9633691 0.1867771 0.1897604 
0.1132999 -0.003966009 -0.2446752 0.9355104 0.3008592 -0.173269 
-0.02760247 0.1170782 -0.2833322 -0.2747596 0.7155827 -0.6370212 
-0.03581183 0.5755188 0.2421947 -0.997471 -0.002939941 0.04526874 
-0.2197514 -0.7415895 -0.2485277 0.008042995 -0.4134646 0.8948752 
0.1101872 0.1005611 -0.01245367 0.9044768 0.3719625 0.2070423 
-0.02605784 0.3844347 0.2718709 -0.8368514 -0.08298372 0.5289188 
-0.02808622 0.4003815 0.1209166 -0.9089261 0.2011762 -0.3637664 
0.01106702 0.1759219 0.2243072 0.5801158 -0.2903639 0.7492376 
-0.02451418 0.8412663 0.4794373 -0.3742632 0.8001459 0.4586144 
-0.0241048 0.2707902 0.006476616 -0.8419571 0.4112009 -0.3356774 
-0.2019112 -0.6353216 -0.3024652 -0.3054931 0.2033433 0.9250706 
-0.06931968 0.1831888 -0.05476328 -0.7375073 0.6471373 -0.1892577 
-0.1296972 -0.3244989 0.1754195 0.838396 -0.267979 -0.4702395 
-0.1314879 -0.2198098 0.2063869 0.1824865 0.07703803 0.9754525 
0.1880027 -0.7051125 -0.3225035 -0.2913052 -0.5777925 -0.7374817 
-0.0954975 -0.0407504 -0.3241809 -0.6112494 -0.03846638 -0.7887309 
-0.1318693 0.08480646 0.2255007 -0.6546611 0.2458999 0.7140843 
-0.09761168 -0.2286132 -0.2893403 0.8910189 -0.07729549 -0.4279679 
-0.1881029 -0.4880026 0.1821849 -0.9970728 0.06225608 -0.03678728 
0.1263151 0.08234108 0.1581556 0.9843715 0.1356938 -0.1055558 
-0.03862758 0.4326222 0.2320201 -0.9834172 -0.002788041 0.1777059 
-0.03567089 0.7157411 0.2689158 -0.9955812 -0.02409714 -0.05521428 
0.1060251 -0.2399517 -0.3189952 -0.4279814 0.238087 -0.8718487 
-0.02029012 0.15994 -0.2204716 -0.1624821 0.9271823 -0.3253891 
0.0128528 0.583628 0.2944433 0.9327425 -0.05374905 0.3537388 
0.09913318 0.1114591 0.05261804 0.9768134 0.1618624 -0.1388988 
-0.09020101 0.184953 0.05661585 -0.8965055 0.427486 -0.09356971 
0.01791475 0.3200473 0.07222128 0.8961776 0.2913796 -0.330965 
0.05910862 -0.1223134 0.1164924 0.009126551 -0.8814214 -0.4664682 
0.1213932 -0.3451443 -0.350797 -0.3832935 -0.1789247 -0.9014497 
0.03776857 0.2776185 0.09798128 0.9602131 0.2219135 -0.1665369 
-0.1774834 -0.6293089 0.2260149 -0.3390555 0.1672659 0.9220281 
-0.1812735 -0.672167 -0.304 0.6701371 -0.1173841 0.6299908 
-0.1048378 0.1312751 -0.08094353 -0.7728489 0.6070857 -0.1843394 
0.09504569 0.1320461 0.04982069 0.9680543 0.2157072 -0.0933242 
0.01832361 0.7282023 0.3223753 0.9557017 -0.1467412 0.2537465 
0.06749491 0.1072507 0.2173082 -0.3518527 0.2941639 0.8849155 
0.02487863 0.3478855 0.2395289 0.9718482 -0.02245272 0.2345288 
0.02486317 0.5386586 0.2393315 0.993386 0.04458399 0.08817342 
-0.03386758 0.4253226 0.1485697 -0.9281095 0.180567 -0.3213713 
-0.1127137 0.003910901 -0.2786265 -0.9068846 0.2766913 -0.3177438 
-0.0229571 -0.1180409 -0.3747371 -0.9202921 -0.1060728 0.3658648 
0.0197743 0.8106428 0.5182818 0.9455688 0.2267939 0.2039296 
-0.05128093 0.8973365 0.34953 -0.8652167 -0.0199887 -0.3673899 
-0.04489371 -0.1124399 -0.09544043 -0.482324 -0.8197904 -0.2964653 
-0.06253171 0.2184348 0.01940291 -0.8145249 0.5370336 -0.2192052 
-0.2029152 -0.6488239 0.2003271 -0.9828434 0.08366176 0.1426954 
0.100776 -0.05566487 -0.3060063 0.8308614 0.09727965 -0.5419596 
-0.1209758 -0.2728588 0.168042 0.9131659 -0.1103519 -0.3444647 
0.1170572 -0.1418959 -0.1768626 0.2943941 -0.3178277 0.897693 
0.1272265 -0.3501183 -0.3511699 -0.2116893 -0.1148213 -0.9405658 
0.03863682 0.1021644 -0.2851251 0.4053316 0.6784319 -0.6127194 
-0.2156049 -0.6584779 -0.3073212 -0.7935793 0.1860556 0.5762382 
0.1741726 -0.6087505 0.2173779 0.6456218 0.2242232 0.7244312 
-0.1853609 -0.3210711 0.1961354 -0.8609712 0.03945886 0.5013565 
-0.07294096 0.215657 0.1234871 -0.8818163 0.4197879 0.1999076 
0.07855982 -0.1461925 0.1323759 -0.611156 -0.5532898 -0.5600359 
0.1799604 -0.7087916 0.2459238 0.2519217 0.6640814 0.6956681 
-0.113854 -0.1378436 0.2064196 0.1961263 -0.03089859 0.9790902 
0.1539476 -0.5562749 -0.3482279 -0.6803043 -0.02479721 -0.7030237 
0.02043562 -0.1038335 -0.13463 0.2914369 -0.8556296 -0.4264 
0.1187662 -0.4191996 -0.3331912 -0.9328499 -0.202441 -0.2874232 
0.01151976 0.8737159 0.4198086 0.2633659 0.8915142 0.3568244 
0.2119777 -0.6877428 -0.3088819 0.8881333 0.3009704 0.2487034 
-0.04885762 0.1239886 -0.2596785 -0.4512914 0.7259384 -0.516724 
-0.002278177 -0.2855222 -0.459013 -0.04235733 0.1345771 -0.9810522 
0.02091956 -0.1212578 0.002047194 0.297428 -0.9518962 0.04178756 
0.01663757 0.1803917 -0.147747 0.2867159 0.9120557 -0.2908327 
0.04097674 -0.0196167 -0.3309842 -0.1284346 -0.3097034 -0.9410247 
0.02438032 0.5422554 0.2195134 0.999218 -0.001478428 -0.005022592 
-0.1344954 -0.1363267 0.1019221 -0.3310795 -0.2859427 -0.8652312 
-0.04562315 -0.02567992 -0.323113 0.5814793 -0.443961 -0.4206743 
0.006643266 0.0120771 -0.3477039 0.7812625 -0.5533137 -0.2182705 
0.1577711 -0.3852083 -0.3360318 0.7537384 0.1026534 -0.6421893 
-0.07782503 0.2100566 0.0869486 -0.8492174 0.5258964 -0.02914714 
-0.2022403 -0.58749 -0.3501855 -0.7993401 0.2511877 -0.5445006 
-0.0060198 0.8778246 0.364344 -0.06986638 0.9401244 -0.3208413 
-0.005489572 0.5457038 0.1467404 -0.09028523 0.3431725 -0.8715721 
-0.1425412 -0.006141355 0.1756284 -0.9874262 0.02705694 0.1483082 
0.02865503 0.05710201 -0.332697 0.4198098 0.4826031 -0.7660522 
0.1289383 -0.05477993 -0.2259066 0.9648887 0.1905341 -0.1735962 
0.0646079 0.1764718 -0.04300771 0.7833548 0.6136314 -0.09767334 
-0.1827675 -0.5432267 -0.3556087 -0.2863463 0.1828143 -0.9190866 
0.1094997 0.07569029 0.0840743 0.9678472 0.09721018 -0.2314558 
0.1954247 -0.6425045 -0.3618477 0.3781772 -0.07801063 -0.8955251 
-0.05148403 0.2536674 0.1779719 -0.9800309 0.06169781 0.1866462 
-0.1346717 0.002636891 0.2028959 -0.8866766 -0.1677992 0.4274499 
-0.1413598 -0.1125838 0.09665695 -0.6156271 -0.2830475 -0.7140449 
-0.03548981 0.612754 0.2342701 -0.9916559 0.01560865 -0.10262 
-0.1265804 0.1124158 0.2136232 -0.634059 0.5480208 0.540968 
0.1221622 0.0808053 -0.02869797 0.9245142 0.3393565 0.170849 
0.09845833 0.1086419 0.0360872 0.9845138 0.1702636 -0.04130469 
0.02549816 -0.06479177 -0.2931261 -0.5161617 -0.5239378 -0.6737899 
0.1094802 -0.07912672 0.0699098 0.2686915 -0.4579006 -0.8430508 
-0.1423743 0.001498917 0.1342755 -0.9542795 0.2987478 -0.004633614 
0.10286 0.08690128 0.05631375 0.9847826 0.1358695 -0.08496058 
-0.09333128 -0.05835273 0.2106719 -0.06413766 -0.2732532 0.9591308 
-0.1540363 -0.03063173 0.1240359 -0.9510583 0.2985518 -0.07568824 
0.1760761 -0.3506678 0.1739659 0.9928538 -0.04901625 0.008279704 
-0.08382812 -0.1443655 0.1882468 0.7793541 -0.3892338 0.4471323 
0.005022509 0.5860977 0.3098596 0.6497159 -0.1508159 0.7314493 
0.07100404 -0.15874 0.1673964 -0.8427286 -0.5185362 -0.0299566 
0.04384375 -0.02850778 0.2174685 -0.08879462 -0.1400646 0.982226 
0.004111704 0.3059073 0.01826503 0.7801961 0.3996674 -0.4288535 
0.1044459 0.1530116 0.1533847 0.9044614 0.4212817 0.05913862 
-0.111009 -0.2327214 0.1778602 0.9481438 -0.2451732 -0.1925525 
0.02390692 0.5775802 0.2213417 0.9988623 0.01837392 -0.04371014 
0.02079399 -0.3256312 -0.4158755 0.8861954 -0.0989645 0.1956884 
0.03104057 -0.1272567 0.1087714 0.2949504 -0.9223148 -0.247766 
-0.1452498 -0.01886484 0.09843189 -0.9139479 0.279859 -0.2906408 
-0.003701614 -0.007218724 -0.3317276 -0.04625057 -0.4363676 -0.8982862 
-0.05941973 0.2406175 0.0689064 -0.8924299 0.4435628 -0.07639578 
0.213278 -0.7451442 -0.2515931 0.3616125 -0.4231072 0.8093069 
0.1061913 -0.05068103 -0.1511057 0.6466765 0.06617555 0.7542542 
-0.01857154 -0.08819532 -0.1826949 -0.05683333 -0.9778076 -0.1716881 
-0.04813149 0.8751472 0.3719933 -0.9200864 0.2071928 0.07415532 
-0.02205684 -0.1154066 -0.1157706 -0.3071311 -0.8407815 -0.4328457 
0.08897709 -0.07979874 0.05540703 0.5697191 -0.6990178 -0.4156775 
-0.05372338 0.8591549 0.3402731 -0.1883853 0.9369179 -0.1262409 
0.2019878 -0.6442492 -0.3101096 0.6852179 0.127752 0.7056562 
-0.1275651 -0.09404726 -0.1595846 -0.363412 -0.2298372 0.9019209 
0.1604541 -0.4276823 -0.3021828 0.7800015 -0.03929881 0.6008191 
-0.1480046 -0.1290516 -0.1951264 -0.9598321 0.01353336 0.2403512 
0.004509235 0.8415517 0.2832017 0.5133258 0.6482519 -0.5564598 
0.1252884 -0.05243102 -0.2426348 0.9619532 0.1863222 -0.1992621 
-0.05903929 0.2278078 0.1576343 -0.8757799 0.3447882 0.3339775 
0.01654486 0.5373328 0.1854215 0.8831879 0.1916269 -0.4256268 
0.02182286 0.1079407 -0.2894409 0.3880869 0.6626356 -0.639906 
0.1164807 -0.1502293 -0.1790283 0.3457596 -0.3208624 0.8735519 
0.06282504 0.193973 0.006113152 0.8365374 0.4996935 -0.2242554 
-0.1276471 0.05195299 -0.121615 -0.9242585 -0.02598177 -0.3756019 
-0.1504564 -0.3268258 -0.3367151 -0.6844975 0.3841227 -0.6185517 
-0.1757544 -0.6761633 0.2325266 -0.2427391 0.2042951 0.9347298 
0.03437281 0.2777495 0.08057206 0.9206853 0.3285607 -0.2073257 
0.1074402 -0.06914907 -0.2966941 0.8542687 0.08715564 -0.502844 
-0.163958 -0.1557342 0.1496657 -0.957731 -0.0002353396 -0.286734 
-0.03780282 -0.1160076 -0.09733836 -0.471667 -0.8086682 -0.3441015 
0.0258239 0.4744843 0.2377919 0.9915555 0.001119631 0.1293356 
-0.03288047 0.7691644 0.2655051 -0.9121416 0.1384242 -0.3797446 
-0.03438861 0.2185445 -0.05151333 -0.6124573 0.6809249 -0.3960056 
-0.1034161 0.1382016 0.04099703 -0.9510832 0.2678027 -0.153566 
-0.1542094 -0.5932864 0.1880568 0.8307346 0.03356031 -0.5461995 
-0.01840237 -0.1300549 0.07494263 -0.1645611 -0.9727042 -0.1512725 
0.02566679 0.5315827 0.2272494 0.9932693 0.09751612 -0.04459435 
-0.07750253 -0.1468905 0.1762849 0.7902313 -0.5378633 0.2511477 
0.1508259 -0.5807209 -0.3171417 -0.7923028 -0.09350943 0.4502488 
-0.05565584 0.2387693 0.1621667 -0.9766492 0.06064791 0.2054226 
0.0511389 0.2367401 0.06713757 0.8707975 0.4779176 -0.1059742 
-0.1663125 -0.5480327 0.1755532 0.5768937 -0.05041039 -0.8027875 
0.1351592 -0.2273507 -0.2223432 0.7132245 -0.3025485 0.6208772 
-0.01156565 0.3646527 0.05744596 -0.5764858 0.4618165 -0.5491781 
-0.03495654 0.2721058 0.03688598 -0.8431965 0.4232665 -0.3280867 
0.09451158 -0.06650153 -0.008356369 0.8384163 -0.5200732 0.1507547 
0.1178061 -0.02848981 -0.03216289 0.9093258 -0.3877525 0.1484934 
0.1060073 -0.2055584 -0.2028112 -0.2130703 -0.3788502 0.8989279 
-0.1293036 0.05476608 0.2339351 -0.6876005 0.04097091 0.7207075 
-0.1718262 -0.4834479 -0.3039611 -0.1566887 -0.1743019 0.9620697 
0.07399022 0.1464438 -0.1118907 0.7346081 0.641818 -0.219803 
-0.1270511 0.0924172 -0.09027625 -0.8906655 0.424397 -0.1601988 
0.0170196 -0.2177234 -0.4059974 0.8616105 -0.04354157 0.366259 
0.07894345 -0.1118001 0.2037689 -0.2878135 -0.07402369 0.9538953 
-0.1231779 -0.07852247 -0.2910323 -0.8643757 0.06580222 -0.4963745 
-0.09081102 0.1052578 0.2211649 0.1751532 0.4333999 0.8804508 
0.1561064 -0.486035 0.1741884 -0.5640869 -0.07720689 -0.8204783 
-0.03986498 0.4400066 0.1850941 -0.9933547 0.06524003 -0.07760996 
-0.02411421 -0.06692576 -0.2823065 0.353861 -0.8365519 -0.4039058 
0.05489414 -0.1022404 -0.09422531 0.5511724 -0.7876655 -0.2604871 
0.163264 -0.4361583 0.1666108 0.3855125 -0.07356659 -0.9146652 
-0.02805001 0.3113307 0.0625017 -0.8944731 0.2894626 -0.3358488 
0.184031 -0.5636092 -0.317774 0.6635541 0.2382865 0.7078496 
0.07893312 -0.0228068 -0.3277829 0.5598321 0.09429527 -0.8016561 
0.03040135 0.1228787 0.2027246 0.07376185 0.05869919 0.9924744 
0.1450028 -0.613246 0.2261516 -0.4432612 0.1428115 0.8847804 
0.1365515 -0.6524988 0.2175119 -0.9739848 -0.1254837 0.1431845 
0.06394368 -0.02068755 0.2211217 -0.1360593 -0.1919525 0.9707135 
-0.1396902 0.06844321 0.21807 -0.9825953 -0.06732178 0.1724533 
0.03539502 0.04999774 0.2140665 -0.3677164 0.1228594 0.9209772 
-0.01821985 -0.0870734 -0.3835547 -0.313498 0.2139796 -0.9219936 
0.1463055 -0.04879065 0.1519254 0.922271 0.306639 0.2257433 
0.01749734 0.5552824 0.2776985 0.9595169 -0.0215301 0.2741949 
-0.1459465 -0.3159108 -0.2572233 -0.4551004 -0.2919845 0.8376989 
-0.1339958 0.07211693 0.1370144 -0.9750074 0.1157745 -0.1892552 
-0.05272447 0.8359991 0.3920741 -0.9885097 0.02832116 -0.125502 
-0.1268612 -0.2403502 0.2053396 0.5057032 0.01255011 0.8619223 
-0.01498228 0.2604429 -0.0245854 -0.6794701 0.429202 -0.5943035 
-0.07035533 0.167467 -0.1009208 -0.6895122 0.6749204 -0.2582234 
-0.1361797 -0.03928524 -0.1875989 -0.9285039 0.3050729 0.1637846 
0.1058059 0.0851078 0.230176 0.1077322 0.3589136 0.9201076 
-0.05069994 0.2867076 0.1413562 -0.9874732 0.1443555 -0.05353758 
0.0495223 -0.1303364 -0.2145381 -0.84627 -0.37704 0.360572 
0.1375311 -0.3106366 0.1509162 -0.4562792 -0.2473263 -0.8459376 
0.05067387 -0.1068781 -0.2948196 -0.735058 -0.3445024 -0.5821208 
0.02366646 0.4984206 0.2499572 0.9841682 0.004087225 0.1755307 
-0.01502955 -0.06103951 -0.2891761 0.2297848 -0.8664105 -0.4372393 
-0.1393108 -0.0430197 -0.209708 -0.9708995 0.2197637 0.009517983 
-0.04343504 0.3216033 0.2097868 -0.9813935 0.02846456 0.1795024 
0.03728935 0.7911984 0.410052 0.9609371 -0.2678086 0.001706049 
0.02269131 0.502314 0.2554765 0.9716039 -0.009054851 0.2328105 
-0.100603 -0.1382948 -0.1785436 0.3393711 -0.3705235 0.8632752 
-0.1130531 -0.06963293 -0.305024 -0.8087546 0.05327404 -0.5800493 
0.02433138 0.793421 0.4758061 0.9115872 -0.3555982 0.2031941 
0.0812105 0.007629958 -0.3155764 0.8156914 0.2628964 -0.5073798 
0.001229479 0.859315 0.3062942 0.4399844 0.7979298 -0.4021523 
-0.1162404 0.06443784 0.04328087 -0.9899798 0.1206634 0.03554803 
0.09276031 -0.04022334 -0.3141627 0.8188614 0.141754 -0.5520481 
-0.0527248 0.2045008 0.185438 -0.8222344 0.1555506 0.5452586 
-0.01697845 0.1685623 -0.1935265 -0.1129097 0.9523258 -0.2804917 
-0.1220227 0.1002592 -0.01671349 -0.9239841 0.3439299 0.1611864 
-0.02698631 0.4672914 0.1522692 -0.9171226 0.1732803 -0.3589382 
-0.03635627 0.2841109 0.05745339 -0.8465972 0.4078541 -0.3401456 
-0.03898295 -0.1204248 -0.08607148 -0.4684088 -0.8564896 -0.2151176 
-0.1857966 -0.6611478 -0.2993938 0.4080915 0.06871873 0.9064406 
0.1114694 -0.1018051 -0.2924956 0.8645654 0.01291369 -0.5010099 
0.1109386 -0.4009096 -0.3096517 -0.9240491 -0.3152482 0.03453951 
0.01179748 0.6538452 0.2093365 0.8717417 0.1800093 -0.4491278 
-0.03416694 0.1007739 -0.2969002 -0.3707346 0.6452976 -0.6657652 
-0.02954157 -0.3502491 -0.4621725 -0.9087388 0.1372114 -0.35427 
-0.03963917 -0.1102862 0.1857901 0.1982458 -0.6399561 0.7328174 
-0.1521336 -0.02814547 0.1184312 -0.9461766 0.3116933 -0.08317382 
-0.09224534 0.1577666 0.1855789 -0.3011034 0.7268394 0.6077914 
-0.1941176 -0.6486655 0.2184115 -0.668703 0.1076113 0.7215809 
0.1276789 0.04871755 -0.09553623 0.9543995 0.03373546 -0.2929732 
0.09977431 -0.06076002 -0.01526356 0.8609602 -0.4817449 0.1402681 
0.02343456 0.3377523 0.2441356 0.9521271 -0.02853792 0.294888 
0.07938061 -0.2198698 -0.22923 -0.7831171 -0.3839993 0.4330214 
0.1752355 -0.5588777 0.2039862 0.8248144 0.1437604 0.5375582 
0.01801135 -0.02902781 -0.3177709 -0.1177161 -0.6036147 -0.7842502 
-0.1511329 -0.2192052 -0.2708607 -0.8917363 0.1570466 -0.4232496 
0.08929621 -0.0730115 0.0381428 0.7524744 -0.6038377 -0.1838578 
-0.03669624 0.5066915 0.2300329 -0.9910562 0.00087261 0.130898 
-0.05375352 0.05626617 -0.3250346 -0.4605892 0.5732896 -0.6743354 
0.04827236 -0.01485369 -0.3338825 -0.1551011 -0.2028916 -0.9605024 
0.02162557 0.6910989 0.278338 0.9934505 -0.04725687 0.09760477 
0.1535349 -0.6911769 0.2344798 -0.6589113 0.1851035 0.6954092 
-0.003160532 0.76006 0.5407395 0.3589808 -0.9147431 0.1224926 
0.06122041 -0.0953354 -0.1725819 -0.4488301 -0.582644 0.6641553 
-0.03265563 0.4134421 0.2569234 -0.9690884 -0.01432325 0.2462491 
0.181256 -0.723312 0.2572458 0.3671756 0.4851441 0.7922213 
-0.185883 -0.6953323 -0.3121465 0.8846341 -0.3504671 -0.06623638 
0.1362636 -0.433199 0.2015073 -0.8299084 -0.07433012 0.5461965 
-0.02337145 0.5949001 0.2986307 -0.9366814 -0.06031875 0.337275 
0.1094533 -0.08765399 -0.2956518 0.8479917 0.03653621 -0.5229149 
0.01161569 0.7377208 0.3422405 0.8435348 -0.2891255 0.4487799 
-0.119491 -0.2945611 0.1812589 0.9601603 -0.1445501 -0.2278348 
-0.03893264 0.4615425 0.1945485 -0.9874973 0.09548026 -0.1246039 
-0.02609869 -0.2201444 -0.431472 -0.9971837 -0.0343817 -0.02244181 
-0.07804954 0.1768562 0.1736431 -0.4785372 0.6464315 0.5891603 
0.1213418 0.02105463 -0.1047409 0.9017981 -0.2135424 -0.3751049 
-0.03622484 0.4736823 0.1819581 -0.9722518 0.1130577 -0.2002828 
-0.09125687 0.1407909 -0.1088807 -0.7753109 0.6013126 -0.1919585 
0.1122978 0.07210364 0.01432743 0.9122577 0.2254024 0.3387814 
0.02893056 0.4385014 0.2070843 0.9984549 0.01806418 0.04274921 
-0.06105424 -0.1315939 -0.2734979 0.8751874 -0.3621822 -0.3065009 
0.01137556 -0.1814941 -0.388621 0.7722442 -0.09566749 0.6141174 
0.1270568 0.03354558 0.203908 0.9774314 -0.09020349 0.1721881 
-0.00480599 -0.01317761 -0.3712709 0.871952 0.02725821 -0.4862114 
0.1062283 0.008083592 -0.1277929 0.8740211 -0.2164143 -0.4346027 
-0.008351022 -0.1047347 -0.1466373 -0.04735361 -0.9094796 -0.4088912 
-0.1476659 -0.01877958 0.1051457 -0.9398869 0.2479783 -0.2024625 
-0.1349912 -0.01670504 -0.05058125 -0.8985396 -0.435561 0.02524181 
0.209826 -0.6664256 -0.3485676 0.7058215 -0.184881 -0.6712755 
-0.02990501 0.2025295 -0.08599806 -0.4145119 0.8297262 -0.3657342 
0.01147051 0.4713421 0.2892889 0.8502276 -0.02883411 0.5081695 
-0.1333992 -0.1022701 0.08741354 -0.3292443 -0.4107873 -0.8313382 
0.01293797 0.2309249 0.2410515 0.6638745 -0.2278477 0.7009115 
-0.01535164 -0.2822409 -0.4561151 -0.4215482 0.1576034 -0.8775998 
0.1599281 -0.6214945 -0.3112837 -0.7305312 -0.06141507 0.6363026 
0.1183677 -0.4090286 -0.2961501 -0.6646241 -0.4704483 0.555416 
-0.1204667 0.1280242 0.1169206 -0.9530488 0.2047134 -0.2228202 
-0.09737626 0.08287156 -0.2363913 -0.9191753 0.3241658 -0.2230024 
0.007508792 0.4966168 0.143284 0.863217 0.1831512 -0.4255204 
0.0496151 -0.1455491 -0.2311766 -0.9079916 -0.3402788 0.2290515 
0.0474687 -0.07717006 -0.3064345 -0.6927562 -0.3288971 -0.6414057 
-0.117109 -0.3602084 -0.2773876 0.5792093 -0.3314975 0.738934 
0.1148242 -0.02193152 -0.08619517 0.8724511 -0.3912309 -0.2903627 
-0.1324991 -0.4156254 -0.3357944 0.8563139 -0.18152 -0.4767874 
-0.1442526 -0.4195883 0.1927763 0.9560941 -0.1507972 -0.1074061 
-0.167547 -0.3356425 -0.3012123 -0.9733713 0.09229217 0.196253 
-0.02339434 0.2083168 -0.08060046 -0.3616385 0.8053783 -0.4485953 
-0.05620883 0.2397663 0.04712029 -0.8290652 0.507203 -0.233546 
0.1730291 -0.4150131 0.1758426 0.916143 -0.01972144 -0.3761508 
-0.1716713 -0.4998554 -0.3491254 -0.1541009 0.129691 -0.9700328 
0.08097577 -0.2472213 -0.2513126 -0.9398478 -0.287346 0.135265 
0.1058842 -0.3882013 -0.3058294 -0.939005 -0.3124157 0.0284498 
-0.107876 0.1194593 0.02411656 -0.941105 0.3164873 0.07794718 
0.1400066 -0.4614186 0.1886254 -0.8822088 -0.1122484 -0.452746 
-0.1265181 -0.335888 0.188306 0.9278688 -0.2278375 -0.2622768 
-0.03963057 0.4126895 0.2211781 -0.9966092 0.01452757 0.07210136 
0.1562838 -0.3660614 0.2090784 0.5297531 -0.1091238 0.8374112 
0.1095202 -0.1318446 -0.1703756 0.05658869 -0.3391163 0.9337554 
0.02765147 -0.07203896 -0.2895793 -0.5888432 -0.5552375 -0.5854597 
-0.2350998 -0.7103029 -0.2968224 -0.8159484 0.5645467 -0.06299855 
-0.00823003 0.0229396 0.2095811 0.03293558 0.10341 0.9937194 
-0.09174679 -0.2240383 -0.2783043 0.9199431 -0.1516167 -0.3592972 
0.1314982 -0.2031692 -0.2068906 0.5073344 -0.3339102 0.7863718 
0.0841714 -0.1039319 0.2053212 -0.1859953 -0.02641611 0.9772792 
-0.06879523 0.1474553 0.1994198 0.007394593 0.407519 0.9128494 
0.1934481 -0.7523057 -0.2614903 -0.2421546 -0.9597137 0.08974995 
0.03546665 0.3085846 0.1228109 0.9905565 0.1191355 -0.06691501 
-0.04050326 -0.04369016 -0.3321671 0.2066866 -0.2684779 -0.4262067 
0.1799838 -0.6914997 -0.2906418 -0.5239658 0.4187886 0.7030772 
0.2078239 -0.7267269 0.2082635 0.9162796 0.1195041 -0.3665347 
-0.1316064 -0.03295004 -0.174408 -0.8799748 0.3985823 0.2584112 
-0.1299286 -0.3513298 0.1903423 0.920077 -0.2723102 -0.2452337 
0.1838614 -0.6399783 0.2171921 0.7466168 0.1271323 0.6455964 
-0.1778919 -0.2817875 0.1514734 -0.7820673 0.1204104 -0.5944822 
0.01903291 0.1779193 0.2179246 0.6888559 -0.234538 0.6814181 
-0.1868945 -0.2922374 0.1787449 -0.9682709 0.162351 0.04061501 
0.05700713 0.06614392 -0.3070773 0.5484061 0.5017227 -0.6682327 
0.0005214353 0.7545283 0.2221591 0.6589378 0.1760676 -0.7147204 
-0.1625998 -0.2269582 0.1929075 -0.7543 0.2368964 0.6012025 
0.03020387 0.4126109 0.1879125 0.9978485 0.04887759 0.01562256 
0.152161 -0.1785395 0.1763336 0.9575204 0.04086395 0.250917 
-0.1637902 -0.607227 -0.3171153 0.8536049 -0.1115158 0.5010508 
-0.02203647 0.2952677 0.02859395 -0.906509 0.3122207 -0.2792357 
0.1071459 -0.02672416 0.02245631 0.9641232 -0.2276344 0.09512435 
0.1028563 -0.09905094 0.08216779 -0.06125043 -0.5368186 -0.8286698 
-0.01465181 -0.3557653 -0.4736396 -0.2265487 0.3202757 -0.9188614 
-0.04362373 0.3254925 0.1182926 -0.9554106 0.1822499 -0.2307788 
-0.1415884 -0.2790672 0.1440438 0.3961756 -0.1959192 -0.8963218 
-0.1710072 -0.4610711 -0.345135 -0.7297723 0.1071089 -0.6613356 
0.02136569 0.5890403 0.2618274 0.9761979 -0.02903626 0.2147399 
-0.006126779 -0.1173127 -0.1215621 0.01186291 -0.8611432 -0.4887494 
-0.1343334 -0.111016 0.2020818 -0.4099663 0.07068703 0.9033446 
-0.01759187 0.4011484 0.08923158 -0.806914 0.2801914 -0.4530265 
-0.1638699 -0.1489437 0.1491338 -0.9627368 -0.01224702 -0.2661357 
-0.01053058 -0.1262119 -0.3661476 0.1030643 -0.2828184 0.9480853 
0.1396182 -0.1470145 -0.2056167 0.9882846 0.03390653 0.1447126 
0.09994692 0.12312 -0.01490345 0.8930889 0.412349 0.1737637 
0.0415417 0.8247589 0.3435085 0.8296023 -0.540766 0.1242027 
-0.03639627 0.8128422 0.2939623 -0.9206092 0.1698089 -0.3307343 
-0.1920527 -0.7399583 0.2677111 -0.3898346 -0.01290939 0.8406657 
-0.1096414 0.1289769 -0.06491479 -0.8080196 0.5739606 -0.1068519 
-0.03947079 0.02808248 0.213619 0.2337462 0.08084066 0.9671184 
-0.02387744 -0.3589948 -0.4415913 -0.6419091 -0.4926709 0.586524 
-0.2097035 -0.6039684 -0.3454234 -0.8474132 0.2471678 -0.4697797 
-0.1917195 -0.5391925 -0.3405514 -0.9493073 0.2283327 -0.2101492 
0.01357828 0.6321936 0.2068638 0.8826113 0.1493012 -0.4453756 
-0.1007875 0.1701349 0.08758282 -0.8937123 0.419432 -0.124264 
-0.0350409 0.8727297 0.4072154 -0.4842984 0.7950972 0.3547451 
0.02816745 0.221303 0.2149074 0.9309601 -0.01853864 0.3612128 
-0.194741 -0.7165626 -0.2678657 0.3288759 0.8044168 0.494017 
-0.06780413 -0.1035277 0.006225968 -0.5373698 -0.8353093 0.1141701 
0.01080053 0.006378891 -0.3392407 0.2453905 -0.5511518 -0.7600187 
0.09051918 0.06246098 -0.246439 0.9368353 0.2805601 -0.2058622 
0.09939564 -0.2253655 0.1887151 -0.9173864 -0.2463006 0.2921777 
0.1073843 -0.382183 -0.2905238 -0.8505468 -0.3664782 0.3595584 
0.1215911 0.05030204 0.1173263 0.9544541 0.1464663 -0.258622 
-0.1153949 0.1064566 0.08064025 -0.9724857 0.1194406 -0.1995636 
-0.1030076 -0.07221133 -0.3171977 -0.6569541 0.01546855 -0.7402814 
0.1009072 -0.3069165 -0.318985 -0.9248446 0.06870658 -0.3598958 
-0.1297574 -0.09514884 0.2026543 -0.3851794 0.0874749 0.9120422 
-0.2040248 -0.6277097 -0.3051956 -0.423939 0.231196 0.8724139 
-0.1053782 0.08913554 -0.1736654 -0.9399558 0.2828998 -0.1906046 
0.03772909 0.2919437 0.1246442 0.9914203 0.1247103 -0.03034152 
-0.1268378 0.01141895 -0.1109226 -0.9037158 -0.1919162 -0.3800076 
0.009631517 -0.3005206 -0.4601452 0.3455888 0.2273861 -0.8428752 
0.1755615 -0.6960098 0.2348858 0.3564344 0.4196024 0.8303932 
0.01109085 -0.01720415 -0.326616 -0.03212978 -0.5652199 -0.8239111 
0.02947529 0.1199773 -0.2722786 0.4686315 0.6654907 -0.5797772 
-0.04578328 0.1168777 -0.2725526 -0.4088914 0.7187458 -0.5590004 
-0.1832123 -0.7414157 -0.2700504 0.9382077 -0.2113257 0.1915338 
-0.01331143 -0.1098365 -0.1315643 -0.1580247 -0.869598 -0.4473034 
-0.1319882 -0.01127147 0.2026937 -0.8337263 -0.2382944 0.498027 
0.1377779 -0.5065781 -0.3317819 -0.9337597 -0.1796329 -0.1973902 
0.09350054 -0.06064852 -0.146762 0.2315888 -0.3219008 0.8556346 
0.0456501 0.1630848 0.1959378 0.3405269 0.3049549 0.8739983 
-0.06319922 0.2215276 0.1527078 -0.88539 0.3524666 0.2511565 
0.03673537 -0.1178146 -0.04028368 0.4101412 -0.910309 0.0405281 
-0.06022545 -0.109043 0.07045233 -0.4108371 -0.8570696 -0.2995583 
0.1071934 -0.04502511 -0.07350663 0.8654718 -0.4624822 -0.1915006 
0.0772282 0.1899826 0.05710381 0.9091306 0.3914051 -0.141821 
0.1262745 -0.009097225 -0.04239004 0.9674836 -0.2485044 0.04692953 
0.1902114 -0.5832497 -0.3174106 0.7694962 0.2384541 0.5659018 
0.05830712 0.07401329 0.2219326 -0.4715991 0.2339496 0.8500415 
-0.1119576 -0.1137614 0.09257965 0.1715501 -0.4862064 -0.8395744 
-0.07616638 -0.08651067 -0.1121154 -0.5280994 -0.8042036 -0.2518528 
-0.0265272 0.3648975 0.09854713 -0.9113593 0.2080379 -0.3534583 
0.1881448 -0.6736864 0.1894358 0.5571874 -0.3971496 -0.7100796 
0.1361379 -0.4927881 -0.3297242 -0.9182345 -0.2078649 -0.2560343 
0.08073702 -0.2165304 -0.2227489 -0.7259437 -0.4132494 0.5466216 
