ply
format ascii 1.0
comment VCGLIB generated
element vertex 738
property float x
property float y
property float z
property float nx
property float ny
property float nz
element face 0
property list uchar int vertex_indices
end_header
-0.113282 0.1580358 0.1312591 -0.9117216 0.3853736 -0.1225736 
-0.08583497 -0.1898936 -0.282629 0.8499225 -0.2590601 -0.4581751 
-0.02446319 -0.1002971 -0.1437067 -0.3123342 -0.874828 -0.3588206 
0.02300328 0.1592592 -0.2055884 0.3906626 0.8730128 -0.290774 
0.2160455 -0.7010221 -0.3180176 0.7932829 -0.008780366 -0.546129 
-0.0188315 -0.1032447 0.1883482 0.1162863 -0.6908622 0.7114755 
-0.1527617 -0.4252171 -0.3505073 0.2092281 -0.05414382 -0.9689453 
0.05461648 0.8432614 0.3429376 0.9146663 -0.3563395 0.1877764 
0.1382627 -0.5520997 0.1992343 -0.978826 0.02949971 -0.04035556 
-0.1054262 -0.3258721 -0.2945141 0.9801913 -0.1073643 0.110266 
-0.05321354 0.05783538 -0.324092 -0.4513181 0.5603133 -0.6900216 
-0.1558708 -0.2182799 0.1978097 -0.6471182 0.1691591 0.7218863 
0.05500049 0.171065 -0.1020877 0.68375 0.6866806 -0.2438538 
-0.1255029 0.08734953 -0.009413627 -0.9325896 0.3093359 0.1859676 
-0.09169681 0.09754213 -0.2327741 -0.8302879 0.4799424 -0.2787881 
0.001944938 0.1301568 -0.2734167 0.05359356 0.7720706 -0.6325821 
0.1370605 -0.1010456 0.09867773 0.757397 -0.2598146 -0.5990238 
0.1175503 0.1079302 0.2090139 0.6950781 0.5302669 0.4513556 
-0.1059564 -0.05973468 0.02197699 -0.8724357 -0.4805805 0.01769035 
-0.08913091 0.05218954 -0.2936946 -0.8395988 0.3221679 -0.4368927 
-0.1142359 0.08301291 0.0516757 -0.9899638 0.1188737 -0.06187768 
0.02171717 0.7482288 0.2621317 0.9343667 0.04745487 -0.3488047 
-0.04831193 0.2746322 0.1896932 -0.9827852 0.04566155 0.1715654 
-0.144297 -0.2817339 -0.3117092 -0.7988937 0.3283702 -0.5010221 
0.1284703 -0.04915733 -0.1838528 0.9627951 0.2048401 0.1557367 
-0.1447219 -0.101128 0.0964102 -0.7653589 -0.212588 -0.5997317 
0.02632526 0.4373383 0.2294457 0.988048 -0.02822565 0.148516 
-0.1223557 0.02303845 0.03630077 -0.9815217 0.01814536 0.08194056 
-0.03453692 0.1602038 -0.2029818 -0.3959131 0.8750541 -0.2782076 
0.1834025 -0.6253258 -0.3661055 -0.1937893 -0.01906459 -0.9620644 
-0.004606329 0.8155299 0.2500761 0.07148711 0.6134674 -0.7715046 
0.1176576 0.1205945 0.1493294 0.9558555 0.2664875 -0.1181349 
-0.01591777 0.6959133 0.2086176 -0.8777759 0.1348404 -0.455682 
-0.1072928 -0.292369 -0.3079503 0.9508387 0.01490699 -0.3092415 
-0.005815906 -0.09765307 -0.3882588 0.04491651 0.3486962 -0.9191813 
0.12634 0.03415675 0.2095406 0.9750518 -0.1095114 0.1852977 
-0.1785149 -0.6140908 -0.3576327 0.632288 -0.04406689 -0.7603718 
-0.1830337 -0.5590042 0.208571 -0.7230093 0.1279325 0.6460577 
0.06371686 0.139245 -0.1801311 0.6676149 0.7207786 -0.1832063 
-0.1139887 -0.02448783 -0.1129003 -0.8670416 -0.3405332 -0.3635954 
0.03475749 -0.1012316 -0.2602358 -0.822276 -0.5297714 -0.1959541 
0.02665684 -0.119575 -0.09262582 0.4755317 -0.823143 -0.3092813 
0.07399648 0.05949793 -0.2927667 0.8081844 0.3953652 -0.4315661 
0.01944219 0.2045346 -0.08138764 0.3938038 0.8160942 -0.409225 
-0.07325723 -0.1134078 0.09432403 -0.1937558 -0.8412284 -0.453844 
-0.1010782 -0.05480306 -0.1399837 -0.5244818 -0.4962643 0.6479356 
0.01882062 -0.2265547 -0.4277019 0.9997752 -0.006843776 -0.01387134 
0.1330839 -0.1312571 -0.1861124 0.8515761 -0.09852992 0.5066494 
-0.1983473 -0.6016248 -0.3092992 -0.4988959 0.2104739 0.8347176 
0.01258219 0.6997573 0.2270351 0.9088832 0.0984055 -0.4048153 
-0.1699143 -0.2551649 0.1460152 -0.7458419 0.07080295 -0.6485642 
-0.118882 -0.2905531 0.1932106 0.9879315 -0.09708175 0.09968722 
-0.2002785 -0.6975644 -0.3276102 0.2663017 -0.6660377 -0.6330523 
-0.1556587 -0.1922899 -0.2421291 -0.9902632 0.06125112 -0.1149979 
-0.1030209 -0.05403547 -0.1064505 -0.8606687 -0.4025595 -0.308708 
0.02220121 0.5230469 0.1938287 0.9519948 0.1259975 -0.2721541 
0.1107215 -0.1675885 -0.2945015 0.7923785 0.06635483 -0.5768855 
-0.1074111 -0.2971463 -0.3089781 0.950953 0.01747818 -0.3087082 
-0.008083197 -0.1273918 -0.02912859 -0.07402226 -0.9851698 0.1437982 
-0.1598481 -0.7388365 0.22353 0.8074035 -0.4502628 -0.3630196 
0.08132178 -0.0621127 -0.1256538 0.8227732 -0.5028331 -0.2288918 
-0.01295408 0.8569432 0.30283 -0.3476337 0.8126245 -0.4289719 
-0.1275809 0.05231983 0.2357628 -0.6993532 -0.03851321 0.7082919 
0.02096127 -0.3199058 -0.4482864 0.9782853 0.1203708 -0.1608077 
0.07833389 -0.1560596 0.1419497 -0.7347156 -0.4702959 -0.4823714 
-0.0181039 0.3797376 0.08032182 -0.9122077 0.2122943 -0.3474927 
-0.004932504 -0.1235402 0.1576629 -0.09771057 -0.8790449 0.4605044 
-0.01870784 0.4322842 0.1118501 -0.934411 0.1651738 -0.3143314 
-0.1397872 -0.05516605 -0.187277 -0.9736164 0.1680105 0.1413099 
-0.154503 -0.1166396 0.1209523 -0.8980609 -0.1707541 -0.396946 
-0.04226201 0.1712823 -0.1579211 -0.4555282 0.8379716 -0.2863434 
-0.05960674 0.1928548 -0.0571196 -0.7167711 0.6605921 -0.2176768 
-0.1044959 0.08474597 0.2309207 0.02107549 0.3253669 0.9245525 
0.0147738 0.5210676 0.2825443 0.9454527 -0.02607772 0.3244814 
-0.01939163 0.7670122 0.5477315 -0.703654 -0.6292728 0.3029595 
0.07947417 0.1210235 -0.1844544 0.8146958 0.5584424 -0.1469073 
-0.2228171 -0.6457991 -0.3406437 -0.9521527 0.1105011 -0.2433943 
0.03856496 0.2401562 0.1871208 0.9585775 0.06258561 0.2747087 
0.1423968 -0.2805018 -0.2992424 0.8213418 0.3887611 -0.4155878 
0.03877563 0.9128799 0.3513337 0.3205612 0.729913 0.4380855 
-0.03397641 0.4471777 0.2540668 -0.9749007 -0.01273456 0.2181173 
0.2108746 -0.6620014 -0.3477697 0.8418157 -0.04491864 -0.5212095 
-0.1216369 -0.06819206 0.06441728 -0.4964648 -0.4237622 -0.7325728 
0.116829 0.05628679 0.01166934 0.938885 0.1013016 0.3273676 
-0.1048967 0.1609026 0.09092714 -0.9251083 0.3323233 -0.1550937 
-0.02347134 0.6250225 0.3047915 -0.9169595 -0.08294574 0.3826225 
-0.05091407 -0.1307676 0.1409228 0.08612946 -0.9872866 -0.05071834 
-0.1662036 -0.6536369 0.2318094 -0.1184667 0.08425564 0.9889148 
-0.02280376 0.09676021 0.2058818 0.03507326 0.07458234 0.9961568 
0.1186525 -0.08375832 -0.2781178 0.8866667 0.07743935 -0.4553138 
0.03706682 0.2847795 0.181588 0.9939933 0.07382999 0.07996554 
0.1026544 0.1039362 0.01611971 0.9360572 0.2942367 0.177584 
0.02722759 0.4829654 0.1979813 0.9898018 0.06452786 -0.1203289 
-0.008394532 0.1478088 -0.2486949 0.0526946 0.8863797 -0.4566694 
0.006447848 0.3617694 0.06874028 0.8827407 0.2892399 -0.3468831 
0.1539894 -0.1074362 0.158937 0.999848 0.006218656 0.01518593 
0.02579358 0.5167239 0.2122311 0.9976412 0.05372801 -0.03750627 
0.01571019 0.3861887 0.1110013 0.925761 0.1592357 -0.3422293 
-0.1139574 -0.05545781 -0.05928159 -0.8787688 -0.461237 -0.1126328 
0.014821 0.8670206 0.3504154 0.1894214 0.8859569 -0.4205981 
-0.1951968 -0.6372284 -0.3649944 0.1648572 -0.1008279 -0.9788059 
0.1298751 0.05737041 0.191768 0.9973963 -0.04429447 0.01001556 
-0.1303802 -0.4149498 -0.3312568 0.8909547 -0.1842774 -0.4041425 
-0.130842 0.0950833 0.1353568 -0.9708283 0.1484102 -0.1879629 
0.01756527 0.2475075 -0.0194331 0.7122687 0.4911794 -0.4875553 
0.1243469 -0.03591867 -0.2303392 0.9695979 0.1893118 -0.1503269 
-0.09670717 -0.1704131 0.1960859 0.6817787 -0.2048116 0.6812165 
0.02539368 0.1547597 0.2059316 0.526867 -0.08720458 0.8321023 
-0.137149 -0.4494606 -0.3146505 0.9240878 -0.3047316 0.2246602 
-0.1598569 -0.2587964 0.1389238 -0.3566193 -0.110343 -0.9154923 
0.006068761 0.7635393 0.2320471 0.7721492 0.2270091 -0.5758718 
-0.02201092 0.8016697 0.258377 -0.828811 0.2603002 -0.4912667 
0.01297238 -0.1831232 -0.3924917 0.8396394 -0.03041498 0.467908 
-0.03573839 0.2696457 0.0352472 -0.8401223 0.431862 -0.3252184 
-0.1125413 -0.02880757 -0.2976363 -0.8793101 0.150173 -0.4515621 
0.1010459 0.1508589 0.1075344 0.9341712 0.3223559 -0.1499484 
0.1176006 0.07448071 0.2304919 0.4328903 0.2684376 0.8500826 
0.09327279 -0.1352391 0.1091519 -0.5039473 -0.5102471 -0.6942074 
-0.1194178 -0.03907502 -0.01000425 -0.9038364 -0.3882332 0.1785325 
-0.1018124 -0.0213344 0.2206835 -0.1662306 -0.3863434 0.9028393 
0.1060417 -0.3179998 -0.3348517 -0.8160031 0.08067881 -0.5339242 
0.1285312 -0.06842303 -0.1702217 0.8697125 0.09680043 0.4782931 
0.1139775 -0.3303667 0.1988284 -0.9533159 -0.228885 0.08081324 
-0.2249345 -0.7006828 -0.2932371 -0.6275152 0.6642253 0.3809315 
0.08771218 -0.06777257 -0.09705649 0.8280857 -0.4840875 -0.2751165 
-0.03178168 0.6379101 0.2245379 -0.918887 0.07841755 -0.339677 
0.08457173 -0.05935114 -0.1442923 0.4237933 -0.6387221 0.5701855 
0.08952247 -0.07839578 0.05377454 0.6015458 -0.689567 -0.3894307 
-0.01436013 0.8784766 0.4156121 -0.1153748 0.9559866 0.2603833 
0.02728648 0.4928542 0.2187179 0.997629 0.03872761 0.02848875 
0.06618387 -0.1313966 0.1914887 -0.6365479 -0.3784285 0.6651393 
-0.1614396 -0.07377829 0.1222768 -0.9860581 0.04137399 -0.1395587 
-0.088251 0.1213887 -0.1937993 -0.7821423 0.5960609 -0.1646315 
-0.1395108 -0.297165 -0.3305447 -0.7008395 0.3631985 -0.602807 
0.06316569 0.01439058 -0.331881 0.4946983 0.2197917 -0.834406 
-0.1378774 -0.2628522 0.2119362 0.2282479 0.1469628 0.9620357 
-0.1447318 0.04124443 -0.05706561 -0.9941952 0.01857125 -0.04996288 
-0.1469134 -0.2599414 -0.2373981 -0.6786747 -0.3103833 0.6598876 
-0.1503425 -0.3658563 -0.2733254 -0.4947971 -0.2017993 0.8351473 
-0.03425411 0.5995747 0.2228864 -0.9671344 0.03667263 -0.2487767 
-0.1334804 0.07675555 0.1372217 -0.9734848 0.1221617 -0.1929265 
0.02580914 0.5332921 0.2347549 0.9957108 0.06815202 0.04942206 
0.07074596 -0.1601552 -0.2015856 -0.6828089 -0.3511974 0.6341587 
-0.004353569 -0.1333642 -0.09247495 0.01516265 -0.9183878 -0.3148655 
-0.0935722 -0.001732951 -0.3192787 -0.8060765 0.335943 -0.4869297 
0.0343319 0.8520366 0.4471146 0.4453946 0.7513634 0.4592564 
0.111922 -0.3030592 -0.3382635 -0.6047527 0.2994193 -0.7236403 
0.1317012 -0.4699323 -0.3280973 -0.8766356 -0.1705569 -0.1631051 
0.01432108 -0.132362 0.1316104 -0.0749692 -0.9930876 0.08406758 
0.07897145 -0.2008538 -0.2825081 -0.8570931 -0.2164243 -0.4616461 
0.0010767 0.3483953 0.0440081 0.4499231 0.6540245 -0.5941212 
0.005627352 0.4306304 0.2925483 0.8354579 -0.05375172 0.5459685 
-0.1482306 -0.1315563 0.1138398 -0.8655136 -0.1291561 -0.4829676 
-0.1249953 0.1304582 0.1439347 -0.9483096 0.2821102 -0.1103575 
-0.1894867 -0.6493265 -0.3606928 0.3851038 -0.185903 -0.8921289 
0.1692872 -0.6991211 0.2004123 -0.2980386 -0.500779 -0.7999865 
-0.00858124 0.759537 0.5375063 -0.08425859 -0.948489 0.1613045 
-0.07951739 -0.1993717 -0.2432579 0.9340861 -0.305313 0.1097696 
-0.136355 0.04656726 0.1338181 -0.9804532 0.1038258 -0.1657478 
-0.08169923 0.1534809 -0.105044 -0.7400284 0.6304693 -0.2271452 
-0.1692436 -0.6435196 -0.3164821 0.8773941 -0.03399236 0.4710112 
-0.0508223 0.2221766 0.1848632 -0.9309262 0.07609706 0.3459089 
-0.008158183 0.3133076 0.2736204 -0.1673827 -0.1699516 0.9608246 
-0.1404214 0.0658724 -0.05451138 -0.958794 0.2541908 0.06771568 
-0.06311425 0.839949 0.3522257 -0.8816835 0.2125369 0.3451872 
0.08528118 -0.1524839 -0.3088909 -0.3936496 -0.2559804 -0.8759954 
-0.1542545 -0.5626943 0.1909788 0.9180495 0.05538223 -0.3690374 
0.007216314 -0.07023806 0.2074124 -0.01761201 -0.3475638 0.9350939 
-0.0051811 -0.08391888 0.2011 -0.005993939 -0.4484951 0.8936877 
0.006014819 0.7770345 0.5735366 0.7014745 -0.3202893 0.6238904 
0.1216797 -0.01454164 0.07083143 0.8941355 0.1277894 -0.4249588 
-0.1680643 -0.3489476 -0.2999129 -0.9508219 0.075283 0.286729 
-0.1986774 -0.7378523 0.2637439 -0.6402026 -0.002189206 0.7410462 
-0.08156829 0.03396165 0.2315698 0.421734 -0.09267738 0.8980469 
0.1382599 -0.3524086 0.1621339 -0.5094388 -0.2253997 -0.8273032 
0.03034358 0.7757642 0.4250925 0.8512462 -0.5013037 0.106277 
-0.02373256 -0.1318758 0.1007126 -0.109746 -0.9851074 -0.1047411 
0.1412236 -0.2923324 -0.3111133 0.7769764 0.4011441 -0.4824484 
-0.2153392 -0.6596755 -0.3067167 -0.7880452 0.1940026 0.5806285 
-0.01483476 0.2833503 -0.003670611 -0.8352568 0.3864414 -0.3874692 
0.09160196 -0.2665885 -0.2885407 -0.9466313 -0.1049049 -0.3043582 
-0.1704951 -0.383087 0.2074744 -0.5018893 -0.05359039 0.8408022 
-0.005066075 0.3567579 0.2834219 0.128475 -0.1602049 0.9075 
0.1904563 -0.6852318 -0.2916616 0.08849979 0.4303973 0.8877997 
0.02333626 0.7423268 0.3035584 0.9891756 -0.1073074 0.09888446 
0.03435614 0.8586677 0.3401803 0.161937 0.9662347 -0.1922 
-0.1565073 -0.5396804 -0.3373699 0.8545159 -0.09258238 -0.4662394 
-0.02350287 -0.07275321 -0.3556226 -0.8338116 -0.2631545 0.3963069 
0.007344285 0.07951135 -0.3241787 0.207324 0.6474174 -0.725756 
0.08678596 0.1443594 -0.06960767 0.7887346 0.5950053 -0.1543196 
0.125022 0.09880237 0.1643535 0.9805068 0.1800355 -0.04862081 
0.07463029 0.1056573 -0.2378849 0.7537126 0.5526645 -0.3403806 
0.2242649 -0.7157141 -0.2701128 0.4459153 0.6998969 0.5035568 
-0.1361871 -0.03093186 -0.2161898 -0.9665651 0.2364964 -0.09751804 
-0.02916998 -0.009362389 0.2150981 0.08554971 0.09528139 0.9912547 
0.1731222 -0.5223204 -0.3474752 0.7154955 0.2621563 -0.6245651 
0.1151306 -0.2133713 -0.2054148 0.1332622 -0.3745221 0.9154667 
0.02597787 0.4247441 0.1606079 0.968188 0.1407068 -0.2068486 
0.02908905 -0.1211235 0.07250412 0.4665291 -0.8804982 -0.0676351 
0.08208379 0.0305404 0.2370211 -0.2547553 -0.1914977 0.9402279 
0.1903042 -0.5626886 -0.3350441 0.9098411 0.2965363 -0.2902518 
-0.03842603 -0.1218703 -0.05571587 -0.392431 -0.9194196 -0.02394486 
-0.01307639 -0.1307804 -0.09448788 -0.2024363 -0.9296821 -0.2546027 
-0.1485879 -0.2897025 0.1449759 0.3949019 -0.2357885 -0.8870469 
0.02045948 0.8231322 0.2915658 0.816285 0.2801179 -0.4918637 
0.141891 -0.49766 0.2115012 -0.6157975 0.04644264 0.7147642 
0.1609951 -0.3554938 -0.3128101 0.9799014 0.189415 0.03368838 
-0.1189483 -0.2175896 0.2020752 0.4393418 -0.05580418 0.8951188 
0.1151525 -0.128177 0.2051133 0.155008 0.02059164 0.9873985 
0.08070023 -0.1549621 0.1368957 -0.6717296 -0.5202284 -0.5218156 
-0.01032246 -0.1309335 0.1287075 -0.03833382 -0.9828538 0.1641612 
-0.1303039 -0.1343196 0.09923647 -0.2452626 -0.3020988 -0.9083531 
0.01977991 0.2351833 -0.03050188 0.5937014 0.6160155 -0.468673 
-0.1653735 -0.08511752 0.1471634 -0.9957468 0.07708243 -0.03691431 
-0.07890122 -0.1487371 0.1617447 0.7929718 -0.5939379 -0.1017893 
-0.1110965 -0.009536945 -0.1321845 -0.9489033 -0.1462705 -0.2225589 
-0.02278762 -0.03860955 -0.3555631 -0.8306264 -0.2676836 0.23947 
-0.077491 0.197813 0.1484652 -0.7105745 0.6184912 0.3154986 
0.01320005 0.6710702 0.3168536 0.9190825 -0.1021839 0.3696266 
0.06429653 -0.1350318 -0.2954535 -0.7234026 -0.3379346 -0.5993238 
-0.1404707 -0.301073 -0.3319904 -0.6957644 0.3651328 -0.6083544 
0.09551547 -0.3418468 -0.2930896 -0.9733112 -0.09157203 0.1075725 
-0.1777248 -0.4220223 0.1668411 -0.56201 -0.06339088 -0.7904404 
-0.1048901 0.03300918 -0.2721049 -0.8909835 0.3195935 -0.31725 
0.1735755 -0.371334 0.1709942 0.9553066 -0.1110388 -0.2339653 
-0.134858 0.04228143 0.1238503 -0.9693106 0.1221532 -0.21225 
-0.08682168 0.1961703 0.111351 -0.7894085 0.6109449 0.03824213 
0.160719 -0.5778379 -0.3057226 -0.3855657 -0.08425663 0.9049419 
0.1003314 0.03444195 0.2406444 -0.04602241 -0.2496536 0.9654132 
0.02803424 0.3540097 0.1255883 0.9326438 0.1884823 -0.3059877 
-0.05797186 -0.05172668 0.2126974 0.02831341 -0.2761652 0.9604205 
-0.1407148 0.05030161 0.1950447 -0.9906389 -0.08963339 0.09670223 
0.1748904 -0.6866951 -0.3312585 -0.6011356 -0.5828117 -0.5039757 
-0.0246788 -0.05134872 -0.3560158 -0.8404907 0.02831 -0.203813 
0.131261 -0.05706788 -0.2017571 0.9854693 0.1573534 0.05250263 
0.1191641 -0.02525169 -0.03200152 0.9149076 -0.3765168 0.1429936 
-0.01738963 0.5927974 0.1821717 -0.917123 0.1330962 -0.3729585 
0.1498827 -0.4323675 -0.3477788 0.5813429 0.1712067 -0.7828854 
0.1197772 0.1183638 0.1889083 0.885319 0.4186714 0.1670755 
-0.1265646 -0.1604925 0.2055122 -0.1482859 -0.0411537 0.9871903 
0.08930586 -0.1848026 0.1949953 -0.6950601 -0.2722 0.6499885 
-0.1834435 -0.5777882 -0.3048042 -0.2215208 0.04864645 0.9594055 
-0.1462353 -0.08680514 -0.2051762 -0.9903439 0.1371045 0.006743963 
0.2001899 -0.729811 0.199299 0.4516178 0.006654289 -0.8810902 
0.212734 -0.6422825 -0.3309646 0.97267 0.1673196 0.06635237 
0.002602413 0.5117586 0.1397348 0.6387028 0.2474212 -0.641817 
0.1512319 -0.3590467 -0.2846957 0.843991 -0.0382675 0.529466 
-0.129749 -0.2242887 -0.3046171 -0.8096306 0.2516041 -0.5263287 
0.05511829 0.1360204 -0.2172139 0.5847933 0.7442785 -0.3208538 
0.1524847 -0.07332575 0.1408408 0.9904418 0.07889192 -0.04593753 
0.1605788 -0.3027968 0.2132356 0.4676057 0.07520781 0.880319 
0.1170178 -0.03089315 -0.03796849 0.8970547 -0.4279206 0.07697102 
-0.01004274 0.4252231 0.09369245 0.04251755 0.5648199 -0.7484795 
-0.02106293 0.699466 0.3311659 -0.8174769 -0.1868055 0.5435096 
0.01147557 0.1727231 0.2226525 0.6133184 -0.2878652 0.7330629 
-0.0955881 0.1514189 0.007305642 -0.9083077 0.4150082 -0.02601092 
0.1563024 -0.2707101 0.1416714 0.3805695 -0.05262098 -0.9117558 
-0.1135862 -0.152179 0.1122885 0.5531368 -0.4232923 -0.7171545 
0.1038705 0.1126412 0.08031154 0.9661983 0.1704764 -0.1918785 
-0.04145135 0.4103466 0.1796243 -0.9946207 0.07326178 -0.05842564 
-0.1335624 -0.01587581 -0.03812102 -0.9117489 -0.3792848 0.09753042 
0.09078041 -0.01225169 0.2241682 0.2107784 -0.3286622 0.9040928 
0.08485977 -0.1883125 0.180728 -0.8862919 -0.3583068 0.1896583 
-0.06708527 0.09651501 0.2159797 0.4224653 0.268478 0.8651375 
-0.1710754 -0.6497581 0.230833 -0.1658563 0.1105783 0.9720643 
0.02509559 0.0987472 -0.2970517 0.3562793 0.6695238 -0.6509132 
0.1458153 -0.2609991 -0.2678275 0.995978 0.03411723 0.05243494 
0.09680375 0.1186532 0.04474764 0.9754657 0.1872878 -0.08831403 
0.1041768 0.02989767 -0.2061851 0.9697774 0.2404496 0.02873954 
-0.03739008 0.5062512 0.2183403 -0.9969328 0.052497 -0.04953287 
0.03737744 0.2392148 0.01523374 0.8055006 0.5208481 -0.2799534 
-0.04991001 0.2897576 0.1630424 -0.9932578 0.09138361 0.05619517 
-0.1668783 -0.7243248 0.256405 0.6141589 0.3473301 0.6694565 
0.2008249 -0.7129034 0.2356638 0.695493 0.5226547 0.4799544 
-0.03072381 -0.1196914 -0.09863151 -0.4436857 -0.8115739 -0.3659688 
-0.1838185 -0.6722898 0.2281801 -0.4531128 0.1011274 0.8854809 
0.2092343 -0.6511634 -0.3496561 0.8258946 0.04079573 -0.5610277 
0.02181556 0.7088525 0.2855918 0.9896404 -0.08556644 0.1139881 
-0.04209751 0.361995 0.1400647 -0.9798479 0.1088983 -0.1652279 
-0.049744 -0.08418576 0.2012858 0.05892646 -0.386382 0.9197011 
0.1298666 -0.4778414 -0.318097 -0.9680873 -0.1745529 0.09299061 
-0.1249469 0.02710192 0.06837254 -0.9541277 0.1900121 -0.2179075 
-0.03470068 0.5511497 0.2481475 -0.9905577 -0.02110505 0.1340367 
0.06309077 -0.1577692 -0.2112856 -0.7912493 -0.3579492 0.4890191 
-0.05386068 -0.1110619 -0.08658584 -0.4940517 -0.8320305 -0.2440423 
-0.1338018 -0.4365332 -0.3206967 0.9413695 -0.2254211 -0.005557097 
0.1706755 -0.6552837 -0.3553927 -0.730435 -0.2538366 -0.6253933 
0.01398846 -0.00813926 0.2148899 -0.06158483 0.06806264 0.9947746 
-0.1141837 -0.05757262 -0.03477067 -0.8779762 -0.4732505 0.03625659 
0.03949558 0.2610479 0.1732509 0.9888807 0.1058187 0.09378365 
-0.1385142 0.01533943 0.1140549 -0.9527902 0.2945189 -0.07164247 
0.1180975 -0.2374047 0.1429308 -0.566128 -0.2464447 -0.7855508 
0.1314733 -0.06442514 0.1861466 0.6883223 0.2030162 0.6913204 
0.1476688 -0.2428978 0.1358468 0.2461505 -0.1105401 -0.9599265 
-0.146115 -0.3917077 0.2084942 0.552198 -0.1109733 0.8160183 
-0.01809289 0.3639275 0.07141452 -0.9287717 0.1899817 -0.3105049 
0.01607883 0.7430512 0.2480232 0.9230888 0.03828686 -0.3765661 
-0.1192842 -0.0438268 -0.06825291 -0.8551391 -0.4909843 -0.1637907 
-0.0170417 0.8546621 0.4640545 -0.2257897 0.8389574 0.4789338 
0.06304388 -0.05008122 -0.3312942 -0.1050185 -0.1640968 -0.9731325 
-0.1266197 0.09653807 0.2249311 -0.3322393 0.4005495 0.8311321 
0.02406175 0.2221067 0.2229426 0.8388417 -0.1163005 0.5308419 
0.1705549 -0.4904834 -0.3182958 0.9376794 0.07697791 0.33786 
-0.1042325 0.05874026 -0.2416767 -0.9384895 0.290471 -0.1854413 
-0.2021099 -0.6509031 0.1873737 -0.9286287 -0.02305071 -0.3350784 
-0.03846413 0.7723907 0.284551 -0.9887328 0.03168852 -0.1287374 
-0.06370561 -0.10287 0.02247335 -0.5432018 -0.8241748 0.1591468 
-0.01775629 -0.02281218 0.2153643 0.07934136 0.004649237 0.9964545 
-0.0792602 0.206268 0.1127587 -0.8201631 0.5701217 0.02268823 
-0.1918829 -0.5352209 -0.3221194 -0.8893389 0.206507 0.4012976 
-0.1547822 -0.2758163 -0.2921633 -0.8879278 0.2666538 -0.3675033 
0.02046039 0.8557945 0.3250484 0.4083908 0.8283954 -0.3810289 
-0.01695493 0.4918467 0.2976063 -0.6681579 -0.1022409 0.7299337 
-0.02602946 -0.1781109 -0.4145333 -0.9352551 0.1795703 -0.2484207 
0.1208248 0.06532995 -0.1086913 0.912944 0.2457136 -0.3230605 
-0.02004345 -0.1168466 -0.3911147 -0.6191074 0.2650398 -0.7373323 
-0.02866437 0.2510217 -0.009629846 -0.721876 0.5704135 -0.3837675 
-0.03433151 0.7522491 0.2634005 -0.9404232 0.03676503 -0.3135278 
0.1463003 -0.7326325 0.2498711 -0.9302304 0.05006247 0.2788379 
-0.1162759 -0.005313428 -0.1209651 -0.9008901 -0.1879058 -0.3860173 
-0.05130269 0.2803519 0.1540846 -0.9930514 0.1037247 0.03532784 
0.1396803 -0.2380471 -0.2790077 0.8719007 0.2010613 -0.4155354 
0.1321846 -0.08244923 -0.2343051 0.9688767 0.1316888 -0.2085748 
-0.1365983 -0.256436 0.1435895 0.5699245 -0.191692 -0.7907818 
0.1554437 -0.4916664 0.1753253 -0.5373007 -0.07410375 -0.8397567 
0.1427683 -0.3421593 0.1574238 -0.3897369 -0.2163836 -0.8803732 
-0.01971469 0.7116911 0.3377123 -0.7754143 -0.1954524 0.5844512 
-0.006529504 0.03147539 -0.3609225 0.08708265 0.4739893 -0.8703234 
-0.1320884 -0.02494801 -0.2388581 -0.956751 0.2236421 -0.1817998 
0.02363115 0.1847309 -0.1270719 0.3527747 0.8727586 -0.3207868 
0.0104708 0.5120891 0.2928735 0.8855022 -0.02237972 0.458886 
0.1122027 -0.03156672 0.2054627 0.6168312 -0.2674358 0.7282815 
0.1192041 -0.02021918 -0.07211647 0.9097137 -0.3400615 -0.2373448 
-0.1121039 0.04356557 -0.2060201 -0.9706505 0.2218344 -0.02590536 
-0.1214334 -0.2966957 -0.2432969 0.1752151 -0.4522354 0.843856 
-0.01733375 0.7577503 0.4807725 -0.4622134 -0.8678722 0.09279779 
0.1212484 -0.3257341 -0.2557226 0.003415052 -0.3878199 0.9191768 
0.1147955 -0.3892593 -0.28376 -0.718026 -0.4203263 0.5520114 
-0.09287909 -0.08308633 0.04552651 -0.7033552 -0.6309807 -0.3185618 
0.1074943 -0.2512642 -0.3221885 -0.7236248 0.09191781 -0.6709589 
-0.05968135 -0.0975377 -0.1851887 0.4769774 -0.707761 0.5044678 
-0.02424942 -0.07885063 -0.2485124 0.3890932 -0.867619 -0.2234615 
-0.1964722 -0.6860662 -0.3414335 0.1285102 -0.7317758 -0.6613692 
0.005860907 0.8640015 0.326878 0.4554415 0.8458841 -0.2769553 
-0.007791935 0.7553862 0.4744912 -0.1728242 -0.9833815 0.03698568 
0.02865685 0.1750974 -0.1468703 0.4326251 0.8488508 -0.3034768 
-0.1837855 -0.305536 0.2006389 -0.8501529 0.05028488 0.5241182 
0.02562006 0.3148745 0.08830392 0.9159836 0.2573403 -0.3064534 
-0.04866068 -0.1113942 0.03990451 -0.5791607 -0.8111758 -0.01022943 
0.09422632 -0.3079486 -0.268079 -0.9141812 -0.2571123 0.2998536 
-0.03446209 0.4453278 0.160974 -0.9381519 0.1661128 -0.3036222 
-0.1231696 0.1288188 0.129337 -0.9543118 0.2249753 -0.1929947 
-0.1081942 -0.03424569 -0.1170903 -0.8847578 -0.3735549 -0.2469564 
-0.1260515 -0.2321658 -0.3141541 -0.7270452 0.4209048 -0.5292947 
-0.2228466 -0.7387267 0.2190858 -0.9581649 -0.1649446 -0.08560105 
0.05381023 0.2261812 0.1279407 0.8967491 0.4094985 0.1320905 
0.06662922 -0.1383907 0.1882649 -0.7332056 -0.3993898 0.544184 
0.0008810821 0.5166755 0.1395131 0.5618229 0.2522804 -0.7375171 
0.1533654 -0.3825457 -0.2907134 0.8209906 -0.05948377 0.5655655 
0.0755481 0.05483626 -0.2942268 0.8204843 0.3735056 -0.4313027 
-0.05831755 0.01473193 0.2200449 0.2935868 -0.04813358 0.9530989 
0.02574766 0.3292989 0.2342608 0.9723843 -0.02059127 0.2323083 
-0.02881714 0.7749619 0.2582468 -0.8736431 0.1700782 -0.4515499 
0.0113082 0.1059309 -0.2970235 0.2836144 0.6745337 -0.6787887 
-0.05750067 0.8262531 0.4341887 -0.9434586 -0.2763158 0.151102 
-0.0489837 0.2940679 0.1718161 -0.9926745 0.08303545 0.0752414 
-0.1303617 -0.04317555 -0.2613848 -0.9347142 0.1858918 -0.2916663 
-0.03432415 0.2121255 -0.06266473 -0.4927116 0.7610819 -0.413504 
-0.09231947 0.1520211 -0.06472178 -0.7888446 0.5979434 -0.1409971 
0.09699629 -0.07001489 -0.03048349 0.8402764 -0.5330822 0.09362769 
-0.08461959 -0.1924263 -0.2778032 0.8781783 -0.2417151 -0.4036172 
-0.03838287 0.8670482 0.4137068 -0.5220538 0.7795235 0.339382 
0.02861671 0.1355157 -0.2494104 0.4665875 0.7299981 -0.4982338 
0.1759032 -0.5429817 0.1805857 0.8551705 0.05495217 -0.4571473 
-0.01339569 0.1832061 0.2332904 -0.2683522 -0.3784026 0.8841763 
0.1018465 -0.2330686 -0.3142514 -0.5576067 0.1166823 -0.7758946 
-0.1452836 -0.05712084 0.1818466 -0.7987838 0.1908268 0.55556 
0.06925541 -0.004766539 -0.3313165 0.5622269 0.1567479 -0.7948837 
0.1022054 0.01820543 -0.1796719 0.9343058 0.2198939 0.2656564 
-0.005380428 0.8440763 0.2791793 0.09487897 0.769629 -0.601129 
0.03084195 0.05636884 -0.3318262 0.4248737 0.4866645 -0.7608778 
-0.184615 -0.6756691 0.1862312 -0.05590163 -0.6252756 -0.7666049 
-0.1032132 -0.03671077 -0.1244054 -0.8651373 -0.395979 -0.2305097 
0.1519154 -0.6003114 0.1797596 -0.6191113 0.01163708 -0.7810109 
-0.09425925 -0.07293442 -0.09925941 -0.7630649 -0.5430186 -0.2900566 
0.04223684 0.8555332 0.3695095 0.9657811 0.0342795 0.2026635 
0.1077742 0.111596 -0.08539857 0.8248024 0.5252492 -0.206049 
-0.04983652 0.8122619 0.379622 -0.969314 -0.1418083 -0.1702615 
0.01003736 0.7632932 0.4956084 0.6131123 -0.7719458 0.08886887 
-0.09841424 -0.0723602 0.01648203 -0.7809633 -0.5943307 0.01655072 
-0.1466294 -0.342055 -0.2650483 -0.5368867 -0.20086 0.8188257 
-0.1841735 -0.4018949 0.1924086 -0.9266466 0.007216176 0.3711633 
0.09811883 0.04659672 0.240952 -0.1357635 0.02005078 0.9880404 
-0.1176504 -0.1686784 0.2060535 0.06738341 -0.07312654 0.987824 
-0.1347479 -0.1642347 -0.2772094 -0.8011711 0.1197279 -0.5854514 
-0.1927422 -0.7175931 0.2545027 -0.3470018 0.6160535 0.7002223 
0.1090804 -0.1209842 -0.2966264 0.8402342 -0.01667868 -0.5410387 
0.08951022 -0.07936547 -0.3200895 0.6131848 -0.07711201 -0.7465342 
-0.132658 -0.02814374 -0.1907174 -0.9193857 0.3206156 0.1951876 
0.06355514 0.163121 -0.09887274 0.7286839 0.644795 -0.2301042 
-0.1612792 -0.1023969 0.1339307 -0.954569 -0.07221598 -0.2601491 
0.1295711 0.03973946 0.1560427 0.9946365 0.04167582 -0.08581506 
0.1405427 -0.4520535 -0.3512267 -0.3126344 -0.06632336 -0.8235421 
0.01518939 0.5209641 0.1748861 0.9028218 0.1911481 -0.3846827 
0.1249373 0.0495343 0.1323165 0.9720806 0.116165 -0.2028569 
-0.2036348 -0.7489536 0.2548105 -0.3500529 -0.8558347 0.3600252 
0.01599275 0.8841098 0.3725271 -0.3694117 0.924516 -0.0164736 
0.1344726 -0.0342987 0.168523 0.8922061 0.2386875 0.3794504 
-0.07829585 -0.1332328 -0.3017417 0.7261497 -0.3253534 -0.6017035 
-0.1054172 0.1361281 0.05248621 -0.9773152 0.1855884 -0.1011638 
0.1409313 -0.02588629 0.1164423 0.9487305 0.282796 -0.1022323 
0.152886 -0.2043351 0.1435103 0.9744756 0.07193567 -0.2122626 
0.0007447918 0.8254574 0.5198077 0.1096091 0.9056678 0.3888607 
-0.03705493 -0.09254013 -0.2394064 0.81577 -0.5742276 -0.06909047 
0.1234926 0.06659506 0.1338426 0.9687194 0.1068737 -0.2218457 
0.235177 -0.7199226 -0.2878012 0.7171776 0.6696452 0.04645779 
-0.1022287 0.130685 -0.09385976 -0.7951174 0.5765598 -0.1875563 
-0.1551234 -0.2686157 -0.2863971 -0.9244778 0.219624 -0.3061849 
0.08632074 0.01426967 -0.302751 0.8345157 0.3190337 -0.4489824 
-0.1327114 0.02279036 -0.101295 -0.9303448 -0.1480355 -0.3267925 
-0.05396545 -0.05564281 -0.3126511 0.5123063 -0.2782408 -0.8008324 
-0.02047161 0.08734276 0.2068912 0.04912779 0.05131796 0.9954396 
0.03045884 -0.1211177 0.1737455 -0.2600887 -0.7515665 0.6040061 
-0.1383767 0.08743224 0.2094224 -0.9749458 0.2130002 0.05626037 
-0.08362921 -0.1498999 0.1850777 0.7530782 -0.3943084 0.4379094 
0.03789955 -0.09999543 -0.1232142 0.4631476 -0.8102969 -0.3586434 
0.1089044 0.1055991 -0.0929177 0.8421304 0.4805487 -0.2410999 
-0.0231372 0.4243475 0.1217886 -0.9278355 0.1682527 -0.3325905 
0.1156212 -0.04121717 -0.1613857 0.7824968 0.222118 0.5708395 
-0.04223715 0.2563257 0.2128296 -0.946557 -0.03763333 0.3187461 
0.005471084 0.6770574 0.2056216 0.8815052 0.167735 -0.4400088 
-0.1400354 0.02314056 0.143232 -0.990108 0.09951399 -0.0903556 
0.01812489 -0.3154406 -0.4573155 0.8032699 0.1719768 -0.5288165 
-0.1041048 -0.3046411 -0.2779932 0.9524202 -0.2310324 0.1285324 
-0.1502498 -0.2220833 -0.2735323 -0.8925421 0.1567552 -0.4214615 
-0.1273009 0.1213711 0.1991591 -0.8309383 0.4458107 0.323335 
-0.1953991 -0.6116139 0.1787802 -0.8134184 0.1430463 -0.5624019 
-0.01027454 0.792158 0.5709134 -0.2241444 0.5558082 0.7497299 
-0.03286098 0.4633029 0.2596301 -0.9719356 -0.0118118 0.2288905 
-0.1413864 0.02904861 0.1715191 -0.9982929 0.03189354 -0.0007127137 
0.1206634 0.02509777 0.2210094 0.8290414 -0.2304026 0.5087178 
-0.07375874 -0.07671846 -0.1417097 -0.5044574 -0.8484472 -0.1195804 
0.03329006 0.2858281 0.2045711 0.9753534 0.005891704 0.2199741 
0.01880409 0.4905879 0.16963 0.9223306 0.1552213 -0.353458 
0.08061663 0.09824502 -0.2335276 0.8716872 0.4053728 -0.2729664 
0.1440462 -0.1499444 0.1904148 0.7269266 0.01699289 0.6699677 
-0.2066295 -0.6036767 -0.3499531 -0.8081977 0.2311534 -0.5415825 
-0.01685156 0.580158 0.1761936 -0.9335066 0.1196023 -0.3379089 
-0.02727826 0.2697003 0.01212452 -0.8414778 0.4253556 -0.3167844 
-0.1019142 -0.2895643 -0.2849978 0.9847659 -0.08043219 -0.1426901 
0.1389922 -0.0755746 0.1819607 0.7526669 0.2241955 0.615727 
-0.1109288 -0.2522186 -0.3153722 0.733904 0.09325575 -0.6284012 
0.01012416 0.3863953 0.2773484 0.7627596 -0.09887064 0.6278828 
0.1369049 -0.02844382 0.1577197 0.92299 0.2888725 0.2474588 
-0.0636623 -0.1047049 0.05944847 -0.479157 -0.8425698 -0.1993916 
0.04497391 -0.07718685 -0.3037969 -0.6822816 -0.3377855 -0.6470428 
0.05352581 -0.04598958 0.2150766 -0.02355219 -0.2266053 0.97254 
0.1852004 -0.6153303 0.1816958 0.876095 0.1240365 -0.4216078 
0.1924545 -0.5718507 -0.338154 0.9017056 0.297165 -0.3124723 
0.04690474 0.1341296 -0.2338528 0.518086 0.728301 -0.4440805 
-0.1627893 -0.3973827 -0.3450607 -0.586127 0.06958699 -0.7861626 
0.09919898 -0.3507222 -0.3178013 -0.9292606 -0.1508339 -0.3181652 
0.05227915 -0.1342943 0.1710367 -0.6299207 -0.6923971 0.3426509 
0.148232 -0.291951 -0.2783696 0.980342 0.05715551 0.1804913 
0.01288583 0.7532524 0.2430394 0.8954167 0.1279456 -0.4212877 
-0.1123366 -0.0961526 -0.3074237 -0.7666762 -0.01224161 -0.641396 
-0.02926499 0.8257046 0.2880262 -0.8350794 0.3367128 -0.4235989 
0.09816014 0.1214251 0.003664853 0.9321097 0.3365532 0.1203435 
0.1034646 -0.01680422 0.218467 0.4070292 -0.4173412 0.8108227 
-0.02512423 -0.02501898 -0.3261245 0.5423857 -0.6043593 -0.1416663 
0.100449 -0.3417417 -0.3256998 -0.9196622 -0.07560732 -0.3762442 
-0.02105588 0.7331914 0.3458607 -0.7779504 -0.4141754 0.4000731 
-0.04793492 0.7920705 0.4149047 -0.9307858 -0.3586732 -0.01147945 
0.007365203 0.5779562 0.1802548 0.7719749 0.144798 -0.5176703 
-0.1377743 -0.07800706 -0.1684421 -0.8616051 0.03624253 0.4944536 
-0.02459103 0.4758398 0.1502102 -0.9031559 0.1834367 -0.3777469 
0.1270733 -0.161184 -0.186855 0.5784987 -0.2788053 0.7576939 
0.06875913 0.07619604 -0.2849439 0.7329118 0.507828 -0.4525199 
0.0657168 0.1840086 -0.005044533 0.8443211 0.5039813 -0.1811663 
-0.1507974 -0.5678443 0.1973276 0.9647833 0.05345269 -0.2521045 
-0.1668502 -0.1713109 0.1638538 -0.9964893 -0.01547813 0.02078085 
0.2004745 -0.7350888 0.1990329 0.3715732 -0.1212915 -0.8964492 
0.1462308 -0.5712733 0.2194715 -0.3874057 0.1133397 0.8856542 
0.03543493 0.8594564 0.4102683 0.8227807 0.5494618 0.05365398 
-0.09042437 -0.0821779 -0.1564914 0.277493 -0.5201977 0.8067802 
-0.1952329 -0.5951883 0.1976143 -0.9722818 0.1699176 0.1458227 
0.09117669 -0.1980863 0.1579743 -0.8474376 -0.3811727 -0.3528042 
0.1204701 -0.4164737 -0.2986457 -0.7370514 -0.3322294 0.5638607 
0.08416189 -0.1368618 -0.1780757 -0.4090758 -0.3648383 0.8359574 
-0.1364656 0.06359819 0.1447805 -0.9801113 0.1031114 -0.1688965 
0.1326787 -0.0725484 -0.1854657 0.9871672 0.1061002 0.09435966 
0.1391364 -0.3577314 -0.2700646 0.5643391 -0.1607132 0.8013476 
0.1664874 -0.6502243 0.2300119 0.2939828 0.1035822 0.9485692 
0.103412 -0.2015438 -0.201746 -0.274083 -0.3848373 0.8767304 
0.03040029 0.8740053 0.3949504 0.7601881 0.5438056 0.3219576 
0.04853002 -0.1387559 -0.2501358 -0.934554 -0.3128264 -0.1692087 
-0.005875391 0.2944267 -0.005768384 -0.1723595 0.5735432 -0.6635269 
0.02171629 -0.2987231 -0.4144958 0.9886728 0.04025523 0.0703155 
0.03687707 0.7915579 0.419293 0.9665554 -0.2496103 0.03196419 
0.08270828 0.1434266 -0.09096178 0.7506154 0.6255024 -0.2120355 
-0.01888357 0.2344177 -0.04646927 -0.5063056 0.6721395 -0.54 
0.005294586 -0.09466378 0.194789 -0.02547632 -0.5675717 0.8212598 
-0.1990786 -0.7481918 0.258983 -0.3974868 -0.740418 0.4365491 
0.01708427 -0.1258992 0.06688888 0.3205718 -0.9327359 -0.1134137 
0.02649569 0.4426845 0.2297464 0.9917411 -0.008786768 0.126291 
-0.09083945 -0.07619981 -0.3243967 -0.2031441 -0.04701772 -0.975701 
0.1210822 0.01631852 0.08764363 0.9164333 0.2857822 -0.2794086 
-0.1101266 0.03150176 -0.1774333 -0.9868428 0.1027322 0.08227554 
0.1116102 -0.03051218 -0.1627218 0.7296127 0.3359674 0.5844968 
0.00852597 0.8023179 0.5595658 0.4064257 0.6286451 0.6538225 
0.1284623 -0.4405283 -0.3027923 -0.6957399 -0.3106489 0.5927414 
0.164742 -0.5459424 0.2128523 0.586085 0.09316552 0.8037303 
-0.008924928 0.7282247 0.2087067 -0.2394317 0.2940395 -0.9087395 
0.1241954 -0.02824301 -0.2094477 0.9562494 0.2864552 -0.03506676 
0.1533777 -0.2612339 0.1398876 0.4622327 -0.02024209 -0.8708168 
-0.04078082 0.4266473 0.1952388 -0.9983393 0.02968415 0.03428689 
-0.183687 -0.7438478 -0.2816781 0.901709 -0.3379909 -0.1400857 
0.02421281 0.5341209 0.2437375 0.9902185 0.03731731 0.1189695 
-0.1383769 0.0419387 0.2100729 -0.9830848 -0.1007223 0.1422482 
-0.02977782 0.3622434 0.1042297 -0.8938313 0.2339227 -0.3817379 
0.1181587 -0.09860791 0.08353917 0.3955486 -0.3930517 -0.8170215 
0.1106726 0.03840205 0.06172669 0.9881977 0.1354533 -0.05344553 
0.1535082 -0.2285032 0.141744 0.8068805 0.04485962 -0.5035809 
0.1385952 -0.3154651 -0.259689 0.6653507 -0.2259026 0.7110786 
0.02153937 0.1295531 0.2039227 0.2711819 -0.06436309 0.9565066 
-0.1339381 -0.07743672 -0.2682151 -0.9255691 0.1094126 -0.3597132 
0.0281834 0.4589812 0.1942512 0.9928173 0.05487626 -0.08944753 
0.03943885 0.2755755 0.1348841 0.993486 0.1109957 0.009433412 
0.1266957 0.07611188 0.1571656 0.9824466 0.1346442 -0.1262115 
-0.1249351 -0.3129645 -0.3427781 0.3469655 0.3280731 -0.8272821 
0.01366816 0.7877735 0.257101 0.8845834 0.1655222 -0.4359769 
0.1927668 -0.6892092 0.2040861 0.7938636 -0.0940579 -0.5808208 
-0.129129 -0.04841559 0.06430135 -0.7987799 -0.1592499 -0.5758759 
-0.1563578 -0.2141341 0.1962568 -0.6648334 0.1732682 0.7068603 
-0.116362 -0.275387 -0.2346042 0.301141 -0.3964359 0.86619 
0.1650416 -0.4726776 -0.308773 0.8103073 0.03195579 0.5841306 
-0.1371973 -0.1926045 -0.2802692 -0.779344 0.1537886 -0.6073916 
-0.1066875 0.1113739 -0.1299145 -0.8495429 0.4869272 -0.1971207 
-0.1564315 -0.551808 -0.3355228 0.9086158 -0.1133635 -0.3975613 
0.1030527 -0.05972773 -0.3027437 0.8396335 0.08639506 -0.5282756 
0.02240946 -0.06304038 0.2101592 -0.001070618 -0.3057695 0.9500442 
0.1681883 -0.5995725 0.2185833 0.5621016 0.1942974 0.7969295 
-0.09396078 -0.1149738 0.2042853 0.2440706 -0.1438965 0.9501209 
-0.1603155 -0.1992251 0.1885014 -0.8880904 0.1122889 0.4406944 
-0.04152229 0.2485552 0.01636942 -0.7997464 0.5186821 -0.3002133 
0.1406409 -0.5242687 0.2108459 -0.7435125 0.02596315 0.6576376 
-0.1568315 -0.6380385 0.2292342 0.39707 0.0769486 0.9134612 
0.02472203 0.4396552 0.2431376 0.9854399 -0.001689571 0.1695261 
-0.09126657 0.1344223 -0.1290309 -0.7576926 0.6222185 -0.193366 
0.144118 -0.498963 0.1860233 -0.8176431 -0.02403024 -0.5692412 
0.1910586 -0.6856264 0.2202815 0.6918302 0.4042849 0.5587825 
-0.003728685 0.8791169 0.369745 -0.04500597 0.9567224 -0.2568539 
-0.1783157 -0.5316256 -0.3540313 -0.1846164 0.2037184 -0.9250676 
-0.1436241 -0.1108671 -0.2470466 -0.9577552 0.05487375 -0.2818182 
0.002427906 -0.006298464 -0.3517668 0.7934238 -0.3658083 0.1679596 
0.03682091 0.2993966 0.1678394 0.9959226 0.08027159 0.04046861 
-0.04241502 0.3786145 0.1602159 -0.9900818 0.08225969 -0.07871628 
0.1306887 -0.1063 0.1981109 0.5677465 0.07964393 0.8113601 
0.02345834 0.7612392 0.3296874 0.970304 -0.1870317 0.1438175 
0.07110374 0.05862298 -0.2983367 0.7531841 0.3940159 -0.5264289 
0.1154321 -0.07125926 0.2003095 0.4972114 0.1338166 0.8564922 
-0.02210708 0.8179817 0.2693833 -0.7561123 0.3855295 -0.5138265 
0.01596872 -0.1235534 0.1617423 -0.2530226 -0.8298029 0.4949326 
0.1549646 -0.3566503 -0.2921689 0.9079055 -0.00979132 0.4190052 
-0.1097384 0.02448369 -0.264366 -0.9222168 0.286953 -0.2538845 
-0.1392387 -0.1016399 -0.1726868 -0.7985981 -0.06810835 0.5761379 
0.074817 -0.1494092 -0.1923262 -0.6702086 -0.3603334 0.63913 
-0.01449564 -0.08086526 -0.2310387 0.1722073 -0.9540826 -0.1859749 
-0.1140622 -0.05062718 0.2070876 -0.393757 -0.1098124 0.910588 
-0.1134376 -0.2491607 -0.3173063 0.584644 0.1556263 -0.7094043 
-0.02022392 0.8383565 0.2837209 -0.6953158 0.510713 -0.5016184 
-0.1534975 -0.03558969 0.1463305 -0.9577893 0.2580908 0.1252035 
0.07688843 0.1270974 -0.1707284 0.778772 0.6112976 -0.1289591 
0.0184905 -0.2487909 -0.4128015 0.9988429 0.01567159 0.04193316 
0.1715981 -0.4841799 -0.3270034 0.9735253 0.1555622 -0.09752051 
-0.216938 -0.6279892 -0.3453318 -0.8739129 0.2311201 -0.4180703 
0.1953796 -0.6809404 -0.2946284 0.2588791 0.4381588 0.8441103 
0.04916938 -0.1112274 -0.03566511 0.4755929 -0.877003 0.02182638 
0.03519111 0.8261 0.4681509 0.7616631 0.1824206 0.6070353 
-0.1165617 0.03923261 -0.1444687 -0.9343062 -0.09926189 -0.3391609 
-0.01628373 0.7812845 0.5733451 -0.530479 -0.2109523 0.7489506 
0.1076898 -0.1898505 0.201879 -0.1415111 -0.1100351 0.9627829 
0.1267708 -0.111993 0.2003704 0.451295 0.09345534 0.8751885 
0.1207087 0.02717623 -0.1091052 0.895767 -0.1527262 -0.4134226 
0.1414881 -0.2096478 0.1976128 0.5982686 0.1289712 0.7861583 
0.02057089 0.3480832 0.1018719 0.9095479 0.2388536 -0.3382777 
0.01642323 0.2686983 0.005840913 0.835914 0.4363289 -0.3151422 
0.159751 -0.5503144 0.216044 0.3456905 0.1098451 0.9316258 
0.170535 -0.6318142 -0.3579802 -0.5792919 -0.08405401 -0.7979173 
0.04166425 -0.03591271 -0.3223723 -0.494708 -0.3935286 -0.7650684 
-0.07143903 -0.1405966 0.1554741 0.6392795 -0.7255647 -0.141442 
0.02621765 0.798623 0.4771456 0.9013563 -0.3665282 0.224999 
-0.1500053 -0.1287263 -0.211006 -0.9943888 0.05959408 0.03250167 
-0.1758348 -0.2609546 0.1539009 -0.8911406 0.204122 -0.395266 
0.2125904 -0.7046959 -0.2825175 0.3523356 0.7987376 0.483999 
0.1014061 -0.04790884 0.01065517 0.8747169 -0.4587619 0.1561853 
0.1468546 -0.07263812 0.1679256 0.8720048 0.2198091 0.4361328 
0.140919 -0.2556355 0.2088333 0.2319161 0.2031438 0.9437416 
-0.1423566 0.02581082 -0.02790442 -0.9695969 0.0001345463 0.2218634 
-0.05247084 -0.1309287 0.1632522 0.4483919 -0.851644 0.2323226 
0.04280875 0.1776045 -0.1152865 0.5984993 0.7548121 -0.2660676 
-0.09738402 0.007004463 -0.3082501 -0.8310841 0.286395 -0.475874 
0.2141476 -0.7256727 -0.3191632 0.228509 0.02962714 -0.9728073 
-0.1612494 -0.3419965 0.1547449 0.3122818 -0.2798156 -0.906401 
-0.01305301 0.1566606 -0.2285107 -0.0874966 0.8979039 -0.403275 
0.02808148 0.8770392 0.3578728 -0.3998723 0.2184627 -0.8139765 
0.08441181 0.1846945 0.127523 0.782048 0.6150638 0.05786278 
-0.1452289 -0.01201757 0.1474296 -0.9650182 0.2413048 0.06935223 
-0.05248187 -0.112198 -0.2170566 0.8391043 -0.4390566 0.3146275 
-0.1206009 0.0009195841 -0.1870134 -0.8934886 0.3530699 0.2734789 
0.1145827 0.04834995 -0.1259563 0.9046757 -0.01938567 -0.418218 
-0.02373715 0.8446013 0.2964154 -0.6085993 0.6334151 -0.4684874 
0.1177326 0.08761031 -0.02077585 0.9028066 0.3805173 0.1994634 
0.03498749 0.3396605 0.1562866 0.995351 0.06997612 -0.01556561 
0.02882251 -0.08421807 -0.2764829 -0.7421069 -0.5720572 -0.3173048 
0.112094 0.08364333 0.005010503 0.9235884 0.2785278 0.259968 
-0.02431575 0.5514254 0.1850226 -0.9006408 0.1572249 -0.4043007 
-0.1855051 -0.6716747 -0.3506746 0.5037023 -0.4772542 -0.7160957 
0.02113577 0.6844655 0.2814521 0.9927502 -0.02941472 0.1101082 
-0.2030992 -0.7225551 0.2515175 -0.5047296 0.4670942 0.6788667 
-0.117023 -0.1137368 -0.2996475 -0.8130399 -0.03291508 -0.5803202 
-0.1097744 0.1130047 0.05307676 -0.9809051 0.1456341 -0.1241261 
0.1263253 -0.09455335 -0.2616567 0.9226687 0.02011056 -0.3830876 
0.0737681 -0.08831757 -0.09329003 0.7234806 -0.6421796 -0.242833 
-0.1507945 -0.4534004 -0.2977632 0.3010763 -0.2516229 0.9129714 
-0.111148 0.1571514 0.1130643 -0.926781 0.334302 -0.164555 
0.1802037 -0.5758998 0.201001 0.9402797 0.1735259 0.2916788 
-0.1045147 0.1119394 -0.1392548 -0.8593485 0.4740445 -0.1862863 
-0.1525633 -0.297107 -0.3118682 -0.8315125 0.3483695 -0.4307448 
0.1665899 -0.5247036 -0.3076814 0.5052218 0.02652405 0.8530583 
-0.04097988 0.7871848 0.3631979 -0.9045079 -0.4100003 -0.08136401 
-0.08261716 0.008863149 0.2274681 0.307306 -0.2359631 0.9198322 
-0.06360401 -0.08109765 -0.309779 0.7366865 -0.2587892 -0.6232929 
0.0406279 0.8970059 0.3564722 0.9832764 -0.1487017 0.09196565 
-0.1291637 0.08215372 -0.01853553 -0.9326169 0.3097499 0.1851432 
-0.02899889 0.4202442 0.133951 -0.9026824 0.2048102 -0.3783069 
-0.1355112 -0.1111787 -0.2676113 -0.8562081 0.05295031 -0.5124933 
-0.03939366 0.4115142 0.2262402 -0.9923128 0.01254483 0.118508 
0.1474667 -0.445653 -0.2970567 0.1509774 -0.09740777 0.9818956 
-0.01491999 0.8541412 0.2987365 -0.4394267 0.7849137 -0.4241722 
0.170179 -0.5788878 0.2133047 0.6421391 0.139142 0.7523337 
-0.1212785 -0.08380181 -0.2951196 -0.8398509 0.03931928 -0.5382037 
0.1232241 -0.3987322 -0.3434818 -0.6733147 -0.1027755 -0.687201 
-0.06974216 0.1154218 -0.250673 -0.597512 0.671097 -0.4264072 
0.09259672 0.147468 0.05603703 0.9550408 0.2400581 -0.1715477 
-0.1508155 -0.4161935 -0.3505422 0.2021722 -0.03783741 -0.9692974 
-0.03177466 0.5470976 0.1997515 -0.9329699 0.1373297 -0.325967 
0.1756836 -0.296844 0.1949937 0.8727366 0.1627494 0.457828 
-0.01451442 0.6723874 0.1995512 -0.8788103 0.1290766 -0.4471819 
-0.1113231 -0.00331127 -0.1615014 -0.9437407 0.2126015 0.2351941 
-0.1205647 0.0457502 -0.1365102 -0.920082 -0.09419583 -0.3796661 
-0.2163695 -0.7289225 0.246043 -0.6875849 0.4167805 0.5847001 
-0.01268638 0.6738212 0.195819 -0.8980911 0.1169884 -0.417137 
-0.1553377 -0.2266738 0.1328665 -0.5550227 -0.08721193 -0.8170096 
-0.02786179 0.1143156 -0.2865908 -0.3048578 0.7039313 -0.6407933 
0.003254096 -0.362049 -0.4279381 -0.3375638 -0.6070697 0.7059038 
-0.1490977 -0.3791041 -0.2758445 -0.3626353 -0.2049528 0.8938733 
0.1629477 -0.2610365 0.1961824 0.767766 0.3143563 0.5420107 
0.09617025 -0.3088095 -0.3049216 -0.9653397 0.04268201 -0.2509217 
-0.1109851 0.1264019 -0.06768174 -0.8060125 0.574115 -0.1172846 
0.1056712 -0.3179644 -0.2565339 -0.5420743 -0.4440981 0.7094239 
-0.1477572 -0.1910795 -0.2670442 -0.8368703 0.1744675 -0.5125538 
0.02512936 0.5274968 0.2153841 0.9974564 0.05567499 -0.03649767 
-0.02583086 0.2791426 0.251225 -0.8075649 -0.12318 0.5674263 
-0.08890852 -0.07111058 -0.3254567 -0.1766914 -0.06219238 -0.97887 
-0.03565765 0.6514828 0.2514961 -0.9983478 0.02426199 0.03253827 
-0.02850507 0.5686387 0.278609 -0.9558054 -0.03961268 0.2912031 
-0.1936276 -0.6683624 -0.3556466 0.2691299 -0.4932348 -0.8077757 
-0.1282562 0.0970997 -0.06769644 -0.8794327 0.4730951 -0.04483994 
0.02194112 0.8027191 0.5054108 0.9655487 -0.2176355 0.1425301 
-0.141465 -0.2194944 0.2054272 -0.2224417 0.1604786 0.9558547 
0.0446529 0.247154 0.06346865 0.8743179 0.4586604 -0.1581205 
-0.09480716 -0.2033319 -0.2148619 0.6639364 -0.3638134 0.6496958 
0.162631 -0.4165819 -0.3056306 0.9389863 0.04588651 0.3400359 
0.1001958 -0.1365495 0.1041926 -0.4610946 -0.4986735 -0.7296069 
-0.13405 -0.3319709 0.2129597 0.5717427 -0.1671552 0.7959207 
0.1617655 -0.5068367 0.2104809 0.5574545 0.07686912 0.8264847 
0.02392445 0.317606 0.08555551 0.9080743 0.2704563 -0.3181402 
-0.001292799 0.448406 0.1049005 0.4867066 0.349991 -0.7932628 
0.1502446 -0.08082376 0.1281509 0.9840316 -0.02423017 -0.1733588 
-0.1603389 -0.0885525 0.1232386 -0.946384 -0.1508434 -0.2819198 
-0.2176677 -0.6669528 -0.3078317 -0.8392968 0.2212773 0.4866845 
0.1181531 -0.1108046 -0.1654744 0.4722673 -0.2462721 0.8407351 
-0.1888381 -0.6744754 -0.2971612 0.4210155 0.05953966 0.8928059 
0.1174858 -0.0430045 0.1975369 0.7157609 -0.09217793 0.672471 
0.01746272 0.3557964 0.2612641 0.8706137 -0.07467121 0.4763564 
-0.03195725 0.4226613 0.2603028 -0.9572675 -0.02092611 0.2843816 
-0.1868091 -0.4916545 0.1921101 -0.9129159 0.05536638 0.3761663 
0.1709647 -0.269336 0.1695236 0.9596971 0.2268862 -0.1538903 
0.09040377 0.1546761 0.05475405 0.9476659 0.2765649 -0.1571936 
-0.03588006 0.4011376 0.2440255 -0.9727114 -0.009256952 0.2314287 
0.008263492 -0.2073565 -0.39194 0.2028608 -0.1954334 0.9576417 
-0.03638603 0.7269881 0.2729327 -0.9946094 -0.02904294 -0.08355245 
-0.1804191 -0.6582938 0.1733599 0.008945075 -0.2860551 -0.9568231 
-0.06223873 0.8543808 0.3364534 -0.6805688 0.5792796 -0.1916102 
-0.01091266 0.7182881 0.3466275 -0.04057931 -0.4568358 0.8659222 
0.1537565 -0.3917114 -0.3405541 0.628176 0.07775508 -0.7740697 
0.1749882 -0.5120761 0.1907399 0.9621879 0.06222753 0.1197213 
0.1531936 -0.1762246 0.156201 0.9875755 0.03406308 -0.1405433 
-0.03500406 0.746973 0.2646957 -0.9606094 0.02328884 -0.2605411 
0.1800547 -0.7115212 0.248676 0.2177092 0.699162 0.6807543 
0.05472798 0.2315426 0.06988648 0.870503 0.4841263 -0.08400449 
-0.03871458 0.762279 0.2894469 -0.9931198 -0.07328537 -0.06475627 
-0.1950944 -0.7217674 0.1996485 0.0769044 -0.2659579 -0.9423536 
0.08061747 0.186138 0.06946532 0.8985201 0.4211305 -0.117898 
0.1134145 -0.07519579 0.2019366 0.3163556 0.1142212 0.9398052 
0.01096691 0.5992972 0.3025763 0.9104246 -0.09219062 0.4013858 
-0.03456232 0.2523295 0.2316081 -0.8974085 -0.0699812 0.4320018 
-0.01817512 0.1277306 -0.2749907 -0.1725118 0.7551566 -0.6242157 
0.1317513 -0.001503997 0.1526865 0.9891946 0.1421646 0.01739331 
-0.0720927 0.1843109 0.1710884 -0.5892565 0.5233871 0.6091004 
0.1583573 -0.3146855 0.148407 0.1564789 -0.1826132 -0.9681257 
0.1820624 -0.5587077 -0.3176508 0.6780318 0.2306336 0.6964043 
-0.02817339 0.4699603 0.1566625 -0.9180278 0.171437 -0.3574885 
0.1188019 0.001253051 0.2124462 0.816116 -0.2421335 0.5157139 
-0.02028949 0.1779558 0.2276349 -0.5436261 -0.2818617 0.7751178 
0.02606756 0.822671 0.3015928 0.8422603 0.1210901 -0.5002598 
0.1087588 -0.309691 0.1858971 -0.9792333 -0.1476588 -0.09335912 
-0.1301019 -0.3336869 -0.2584268 0.006174894 -0.3032427 0.9431522 
0.1448539 -0.56696 0.2179409 -0.5066547 0.1059001 0.8153856 
0.1626085 -0.5926233 -0.3061287 -0.2683954 -0.03830595 0.9446629 
0.1602222 -0.5868995 0.2213064 0.4047409 0.1494989 0.8868892 
0.020305 0.7345479 0.3180945 0.9704497 -0.1453201 0.1802584 
0.1352786 -0.1916742 -0.2689541 0.8126036 0.1893244 -0.5476852 
-0.1257648 -0.2348548 0.1483691 0.7610877 -0.281403 -0.5697311 
0.08939132 -0.07773325 0.2065215 0.0705742 -0.1811239 0.9792572 
-0.02412897 0.7051911 0.228001 -0.9044766 0.128836 -0.4025717 
-0.05190104 0.007529442 0.2175803 0.2300894 -0.00948414 0.9719253 
0.1759743 -0.7018697 0.2401318 0.3173988 0.5933405 0.727082 
-0.167491 -0.3376424 -0.3164668 -0.9406247 0.2787862 -0.1409107 
0.1540167 -0.1764769 0.1603387 0.9973584 0.03712645 -0.05432929 
0.006011868 -0.3417912 -0.471027 0.1189218 0.3776443 -0.9008527 
0.02561268 0.3341128 0.2352745 0.9723496 -0.02071174 0.2324519 
0.1461699 -0.3700931 -0.2790996 0.7552261 -0.114936 0.6398888 
-0.1585059 -0.4904609 -0.3475232 0.5610756 -0.1008427 -0.7738867 
-0.2145585 -0.7208359 0.2039728 -0.4660633 0.3073108 -0.822003 
0.08428111 -0.1194304 -0.1712996 -0.3598042 -0.3091217 0.879953 
-0.01373805 0.60339 0.1734855 -0.9209105 0.08451505 -0.3307014 
