ply
format ascii 1.0
comment VCGLIB generated
element vertex 745
property float x
property float y
property float z
property float nx
property float ny
property float nz
element face 0
property list uchar int vertex_indices
end_header
-0.8375768 -0.4845894 -0.2396009 -0.8374677 -0.4849012 -0.2394252 
0.3374301 0.8990327 0.2694829 0.3383231 0.8980715 0.2716368 
0.4877987 -0.4230757 -0.7598258 0.4957319 -0.4102564 -0.7644172 
-0.8743991 0.1121428 -0.464554 -0.8777274 0.1124582 -0.4645492 
0.3749385 -0.7856796 -0.486775 0.375107 -0.785103 -0.4873013 
-0.7343479 0.3464449 0.5790673 -0.7602159 0.3388787 0.5531948 
-0.5728925 0.2388036 -0.7814395 -0.5730316 0.2395188 -0.7811967 
-0.2701431 0.8884071 0.3632429 -0.2816917 0.8822995 0.3709326 
-0.07738761 0.5703275 -0.8137165 -0.0774416 0.5700316 -0.8152326 
0.1675727 -0.9815229 0.05252984 0.1678626 -0.9821815 0.04836772 
-0.1696679 0.9653852 -0.1821973 -0.1704428 0.9714277 -0.1533886 
0.3130032 0.9460622 0.01349589 0.3143072 0.9469533 1.56017e-07 
-0.4335514 -0.633709 -0.6343265 -0.4470285 -0.6207311 -0.6413243 
0.07850812 0.3703276 -0.9229384 0.08759175 0.3524649 -0.929651 
0.9280416 0.329107 -0.1585634 0.9414563 0.2922347 -0.1592518 
0.4258171 0.771655 0.4670137 0.4283041 0.7700008 0.4670765 
0.436475 0.8145361 0.3734398 0.4393259 0.8119696 0.3791149 
0.125012 0.1426317 0.9792827 0.152038 0.1427081 0.9773686 
0.7652328 0.178975 0.6135285 0.7625884 0.1806594 0.6166105 
0.6305557 0.3658887 0.6796519 0.6325386 0.3635989 0.6820734 
-0.3491758 -0.906898 -0.2243989 -0.351065 -0.9045639 -0.2338885 
-0.9134208 -0.3548743 0.1832114 -0.9142013 -0.3452008 0.2069761 
0.3393515 -0.4725125 -0.8102337 0.3811706 -0.4700017 -0.7944934 
-0.8594933 0.143165 -0.4851509 -0.8734134 0.1322444 -0.4669082 
-0.3970628 -0.1917465 -0.8938295 -0.4107641 -0.1914382 -0.8881865 
-0.7582721 0.4953656 0.4164158 -0.7543741 0.4986044 0.4209756 
0.670871 0.3702574 0.6377754 0.6724946 0.3702221 0.6374727 
0.991178 -0.1148926 0.01728916 0.9925569 -0.09807424 0.05920308 
-0.03397087 -0.0003144695 0.9976299 -0.0343479 -0.0008379719 0.9975995 
-0.1725277 0.6181086 -0.762698 -0.1795856 0.6271895 -0.7545708 
-0.8491598 -0.2820473 -0.4389872 -0.851947 -0.2763505 -0.4434815 
0.3568238 -0.1648358 -0.9169898 0.3508436 -0.1789162 -0.9176013 
0.04898607 -0.7233686 0.6841714 0.06517217 -0.7398226 0.667474 
0.2155724 -0.4341063 0.8709204 0.2173191 -0.4431932 0.866604 
-0.7625043 0.4246562 0.4831398 -0.7565252 0.429011 0.4905119 
-0.5862512 0.6441708 0.4859249 -0.5991042 0.6659123 0.4419047 
-0.03039766 0.4630625 -0.8816222 -0.01438411 0.4609499 -0.8841465 
-0.001518287 -0.9414371 0.329914 -0.003880577 -0.9406735 0.3322388 
-0.04739275 -0.6287071 -0.7730153 -0.02086538 -0.6598284 -0.7495052 
0.8314807 -0.2612795 0.4829573 0.8504012 -0.2428398 0.4635699 
0.02830076 -0.8702545 -0.485422 0.04728001 -0.8736801 -0.4805987 
-0.9206378 0.07006449 -0.3795319 -0.9210104 0.06896304 -0.3789843 
0.1305188 -0.9777983 -0.1476122 0.1304357 -0.9796775 -0.151321 
-0.518176 0.6442543 -0.5555665 -0.5103781 0.6473101 -0.562983 
0.3854485 -0.7046268 0.5910831 0.3589641 -0.7101302 0.6039319 
0.03229502 0.4051122 -0.9102618 -8.680852e-09 0.4056599 -0.9135996 
-0.184564 0.03289557 0.9789516 -0.1872732 0.02966587 0.9796948 
-0.7506484 0.640929 0.1384469 -0.7630427 0.6270055 0.1462667 
0.5610194 0.6953317 -0.4399822 0.5617461 0.6947094 -0.4459504 
-0.2645389 0.9538945 0.123053 -0.2701396 0.9530872 0.1179131 
0.8925867 -0.06377842 0.4395131 0.8804703 -0.0784865 0.4623189 
0.7219712 0.4328517 0.5323152 0.7055678 0.4446546 0.5479074 
0.159203 0.9451702 0.2727882 0.1634671 0.9459628 0.2719594 
-0.1698135 0.05837326 0.9805268 -0.1638061 0.07506341 0.9808111 
-0.3586006 -0.5216814 0.7690383 -0.3603135 -0.5244501 0.7683421 
0.9091296 -0.303576 -0.2803361 0.9102606 -0.3022407 -0.2793994 
0.9263418 -0.1602211 0.328939 0.9247287 -0.1486668 0.3455192 
0.4814885 0.3920734 -0.7801908 0.4725074 0.3811035 -0.7919881 
-0.9666145 0.16712 -0.1755929 -0.9701378 0.1536824 -0.1764641 
0.8491477 0.1011487 -0.5120158 0.8711723 0.08218297 -0.4798251 
-0.07891083 0.6486209 0.7535398 -0.05843637 0.6726795 0.7360427 
0.3655773 -0.6029542 0.7083724 0.3695929 -0.6002018 0.7085797 
-0.2740794 0.747246 0.5997687 -0.2741798 0.7475092 0.5995562 
0.4997118 0.537449 0.675527 0.4866457 0.5166919 0.7041776 
0.8318292 0.5301189 0.1438122 0.8178823 0.5570569 0.135033 
0.2073527 -0.177901 0.9592751 0.2251785 -0.1779813 0.9558281 
-0.7337734 -0.518997 0.430313 -0.7371815 -0.5274743 0.4169807 
-0.2136315 -0.973292 -0.02675307 -0.1962765 -0.9776535 -0.01363525 
-0.285107 0.6850431 -0.6676106 -0.2838096 0.6858984 -0.6672481 
0.02075621 0.5918756 -0.8013468 0.01274483 0.5854129 -0.8087456 
-0.2079835 -0.8450772 -0.4853481 -0.2007544 -0.8466344 -0.4892989 
0.1564416 0.983512 0.02697532 0.1840371 0.9811167 0.01134536 
-0.9699903 0.008946557 -0.232107 -0.9794181 0.031531 -0.1960142 
0.3349926 -0.6709365 0.6571613 0.3655324 -0.6690502 0.6442057 
-0.7122655 0.502351 -0.4821037 -0.6997857 0.5103548 -0.4963095 
0.5641114 -0.1857605 -0.8019209 0.5663486 -0.1862173 -0.8012826 
0.3386601 -0.4990056 -0.7947879 0.3823541 -0.4974227 -0.7782125 
0.1303477 -0.9142691 0.3797988 0.1258055 -0.9143134 0.3809485 
-0.4120751 0.8710033 -0.2584924 -0.4142979 0.8713452 -0.2543533 
-0.1712195 0.0600516 -0.9801661 -0.1563462 0.0601333 -0.9831481 
-0.6580368 -0.1044211 -0.7416551 -0.6741387 -0.0896882 -0.7302261 
-0.7029711 0.4852251 0.5136743 -0.7009161 0.4852847 0.5168792 
-0.4322953 0.7992748 -0.4104683 -0.4434893 0.8095973 -0.3793946 
-0.1595173 -0.6773502 -0.7150316 -0.1662651 -0.6698091 -0.7214103 
0.3995404 -0.7927119 0.4525269 0.3977658 -0.7960039 0.4518883 
-0.5347218 -0.6363936 -0.5498592 -0.5336186 -0.6398063 -0.5491643 
-0.9472215 0.02269782 -0.3099679 -0.9474442 0.01607688 -0.310995 
0.3722283 0.4992803 0.7777039 0.3819156 0.5044158 0.7733125 
0.5859749 -0.4529611 0.6679505 0.5863442 -0.4569131 0.6663366 
-0.4188258 0.3718453 -0.8252047 -0.4196048 0.3705153 -0.8253825 
-0.7713459 -0.401978 -0.4868506 -0.7610544 -0.4099591 -0.4982204 
-0.4022073 0.8838739 -0.232478 -0.403486 0.8834351 -0.2343253 
-0.2979667 -0.3528246 0.8830224 -0.306022 -0.3528081 0.8823279 
-0.05013508 0.9918665 -0.08141458 -0.04496528 0.9944956 -0.07259659 
0.2844911 -0.9227837 0.2474009 0.2840494 -0.9287155 0.2328988 
-0.1733969 -0.9721146 -0.1342435 -0.1890723 -0.9711109 -0.1366834 
-0.412123 0.7933165 -0.4403591 -0.4136472 0.7922151 -0.4405043 
0.5970859 0.7974631 -0.0305685 0.5839133 0.8099695 -0.01667241 
0.6835678 0.09796549 -0.7185165 0.677832 0.1032786 -0.7249074 
-0.3658172 -0.4809122 0.7928338 -0.3666823 -0.4867875 0.7915858 
-0.3041791 -0.7070562 0.6366009 -0.3049307 -0.7067395 0.637102 
0.5062144 -0.747115 0.4234612 0.497597 -0.7569985 0.4190923 
-0.3945774 0.2778965 0.8726982 -0.3986664 0.2836629 0.8702575 
0.8799323 0.3502759 -0.3098454 0.873471 0.3712375 -0.3084493 
-0.3054666 -0.003173477 0.9501619 -0.3063095 -0.003190437 0.9510726 
0.3713365 -0.0004353981 0.9265625 0.3722492 -0.0005465774 0.9262096 
0.1312002 -0.8402445 0.5207472 0.1199464 -0.8227751 0.5543181 
-0.3322569 -0.1632009 0.9261833 -0.3204091 -0.192376 0.9267449 
-0.6166877 -0.3820182 0.6841807 -0.6264684 -0.362591 0.68885 
0.9144329 -0.157781 0.3613971 0.9197108 -0.1613665 0.3519806 
0.1823046 -0.1168363 -0.9736023 0.1499966 -0.1168341 -0.9807899 
0.2922077 -0.9107481 -0.2855649 0.2919541 -0.9115388 -0.2828083 
0.06211803 -0.4717583 0.8749095 0.07161784 -0.4851562 0.8688847 
-0.1095824 0.610364 -0.7818065 -0.1089244 0.6111203 -0.781773 
-0.8511369 0.1859623 -0.484708 -0.8481654 0.2208372 -0.4772562 
-0.8865571 -0.2679737 0.3710032 -0.8772576 -0.3009048 0.3709714 
-0.07741718 -0.1569934 0.9825809 -0.04802444 -0.2041395 0.9772036 
0.7114297 0.3468065 -0.6082488 0.6985005 0.330301 -0.6322013 
-0.7353408 0.4465147 0.5038239 -0.7325493 0.4507673 0.5063032 
0.06554302 0.4003471 -0.9126168 0.0003468383 0.4010854 -0.9159662 
-0.5118134 0.6838928 0.5125216 -0.5142654 0.6801512 0.5181733 
0.300085 -0.8682128 0.3867257 0.2998373 -0.8768693 0.3707633 
-0.02888645 0.9253768 -0.3704257 -0.02668124 0.9273369 -0.3689148 
0.3277485 0.8991216 -0.2798668 0.3284307 0.8992022 -0.2780954 
-0.6977053 0.6717223 0.2375447 -0.6956387 0.6734322 0.2396733 
-0.6192033 -0.1953289 -0.7563635 -0.6220381 -0.1988416 -0.7533386 
-0.6868439 -0.6081538 -0.3921649 -0.6867366 -0.6072048 -0.3941244 
0.7227361 0.3631723 -0.5851755 0.7603371 0.3490857 -0.5476066 
0.8455922 0.4981902 0.1755282 0.8493593 0.4934621 0.1781906 
-0.9536276 -0.2713663 0.1002166 -0.9546725 -0.2788745 0.08525266 
0.2026382 0.7899877 0.577116 0.2055724 0.7878351 0.5792567 
0.7847385 0.1692495 0.5902213 0.7878535 0.1722469 0.5875186 
0.6290177 0.6613365 -0.4003828 0.6237302 0.6558744 -0.4187036 
0.1505611 0.5567899 0.8134156 0.1371898 0.5767528 0.8038841 
-0.2471399 0.9631207 0.06177943 -0.2387731 0.9674125 0.05193473 
-0.1608417 -0.9560461 -0.2359759 -0.1608859 -0.9576212 -0.231025 
-0.7975054 -0.4786859 0.3601281 -0.7964186 -0.4758297 0.3666163 
-0.2358776 -0.8301335 0.4986597 -0.2373962 -0.8301947 0.5041742 
0.07522203 0.9800251 -0.1637524 0.09446286 0.9809799 -0.1567257 
-0.8412616 0.06705938 -0.5303321 -0.8426676 0.06585508 -0.5289276 
0.09733344 -0.835673 0.5341253 0.09321999 -0.8300208 0.5485874 
-0.418723 0.2106369 0.8797957 -0.4297175 0.2100116 0.8758297 
-0.7092549 -0.02259767 -0.7019342 -0.7389535 -0.05152404 -0.6706375 
0.5147476 -0.7570213 0.3920266 0.5144259 -0.7581213 0.3955356 
-0.1129687 0.5347192 -0.8340117 -0.09426011 0.5607628 -0.8207244 
0.7453569 0.434344 0.500784 0.7422827 0.4358664 0.5045232 
0.7193642 0.3407556 0.6022001 0.7349229 0.3051503 0.6055468 
0.1228791 -0.9131137 -0.3836973 0.1226802 -0.8980219 -0.4211915 
-0.5045443 -0.08843775 0.8559215 -0.5165697 -0.08396717 0.8496433 
-0.2924346 -0.03576165 -0.9529104 -0.2920287 -0.03849693 -0.9530747 
0.7226961 0.2232136 -0.6494322 0.7157518 0.2137851 -0.6630863 
-0.8196007 -0.4619349 -0.3287638 -0.8290461 -0.4556016 -0.3197272 
0.9594362 0.2632543 0.06267579 0.9537337 0.2809581 0.09125704 
0.7446686 0.3873482 -0.5359701 0.7586654 0.3841163 -0.5225837 
0.3966295 -0.7927253 -0.4550678 0.3975398 -0.7918806 -0.4553656 
0.5770178 0.4911458 0.6459287 0.5838369 0.5026834 0.6341799 
0.1590993 -0.3734605 0.9096215 0.167791 -0.3552484 0.9171726 
-0.5842204 -0.692221 0.4165182 -0.5787655 -0.6830934 0.4444723 
0.1063271 0.1129109 -0.9856859 0.1190179 0.08333451 -0.9881921 
-0.377288 0.3717049 0.8471342 -0.3699667 0.3590941 0.8555269 
0.3171383 -0.0404993 -0.9439681 0.3272103 -0.0581276 -0.9423174 
0.8251683 -0.0419209 -0.5581309 0.8306578 -0.04632659 -0.5503065 
-0.975286 0.1045309 0.1787876 -0.9720167 0.1118413 0.2050687 
-0.4077315 -0.6298 -0.6555983 -0.423043 -0.6132468 -0.6636196 
0.5583051 0.4482212 -0.6941876 0.5597476 0.4538477 -0.6906353 
0.06963101 0.6501015 -0.7531692 0.05218154 0.6708324 -0.7386761 
-0.7993138 0.253684 0.5385423 -0.804965 0.2492401 0.5345331 
0.7913935 -0.5545186 -0.2487233 0.791948 -0.5534412 -0.2499219 
-0.8552916 -0.5125154 -0.04075042 -0.85562 -0.5120533 -0.04044819 
0.2737197 0.594655 0.7526622 0.3055321 0.5951449 0.7422248 
0.8466478 0.4591885 0.2608353 0.8257141 0.5055538 0.2481422 
-0.9593859 0.1065856 -0.2470461 -0.9624634 0.1100059 -0.238771 
0.7839527 -0.06472851 0.615211 0.7995991 -0.04643549 0.5966198 
-0.6860681 0.5605682 0.4574145 -0.6758519 0.5449966 0.4946668 
0.6685606 -0.3106592 -0.6722186 0.6731285 -0.2985296 -0.6739008 
0.914745 0.374083 -0.1419669 0.9150816 0.3716552 -0.1469518 
-0.5201508 -0.4467254 -0.723668 -0.5198362 -0.4509107 -0.7212999 
-0.9527134 -0.2056087 -0.2085576 -0.9506959 -0.2185292 -0.2087351 
0.3618041 -0.7555869 -0.5415692 0.3797221 -0.7353261 -0.5603998 
-0.9620425 -0.1157478 0.2321827 -0.9624646 -0.1100019 0.2387679 
-0.3327676 0.759277 -0.5543078 -0.3322361 0.7592309 -0.5549068 
-0.8863776 0.424378 0.1650109 -0.8876113 0.421604 0.1734241 
-0.8495865 0.3977527 0.339707 -0.8452703 0.4032511 0.3442002 
-0.2684264 0.5936647 -0.7555869 -0.3055758 0.5939214 -0.7430843 
0.3222294 -0.8187728 -0.4684325 0.3217717 -0.8193034 -0.4692068 
0.0717901 -0.5684192 -0.8155128 0.08161729 -0.5554678 -0.8251047 
0.2628653 -0.9166 -0.3008628 0.2603456 -0.9170424 -0.3015938 
0.2732319 -0.7723931 -0.5673459 0.2733942 -0.77232 -0.5675417 
-0.2435262 0.8617111 0.4424077 -0.220172 0.8633929 0.4523829 
0.8708891 -0.4687939 0.1381731 0.8950131 -0.4230245 0.1382248 
-0.7823772 0.5196773 -0.3418858 -0.7822692 0.5204468 -0.3409995 
-0.2619836 -0.09179289 -0.9572411 -0.2633009 -0.09247257 -0.9584997 
0.004722371 -0.9125492 -0.4075861 0.003071746 -0.9120672 -0.4090655 
-0.4837455 0.8092136 0.3280524 -0.4856646 0.8078398 0.3299631 
0.939241 -0.1079934 -0.3130397 0.9400898 -0.1018598 -0.3214109 
0.2556354 0.7888162 -0.554767 0.2561029 0.7884992 -0.5551278 
0.5802912 -0.7759327 0.2384018 0.57427 -0.7830405 0.2319305 
0.8959308 0.3402283 0.2759507 0.8956445 0.3369222 0.283244 
-0.4459822 -0.08807847 0.8869597 -0.4164345 -0.08814041 0.9026974 
-0.2926782 0.329052 0.8940982 -0.3019593 0.347749 0.8856952 
0.9677712 0.2371379 -0.03500395 0.975247 0.2100974 -0.03511514 
-0.5081909 -0.8570736 0.03645124 -0.5033972 -0.8610573 0.03546482 
0.4582759 0.8337353 -0.298278 0.4414341 0.8516787 -0.2797045 
0.3676888 -0.92334 0.08392984 0.3245535 -0.9387171 0.107854 
-0.01478698 -0.9794132 -0.1867365 -0.02492583 -0.980448 -0.1839844 
-0.6886358 0.6660098 0.2797363 -0.6937185 0.6629426 0.2763159 
0.180546 -0.8410301 0.5037311 0.196271 -0.841841 0.4985086 
-0.8136055 -0.1774791 -0.5492239 -0.8005775 -0.1923795 -0.5669391 
-0.6038129 0.3158512 0.7277278 -0.6126789 0.3249981 0.7173918 
-0.283071 -0.2870494 0.9130878 -0.2570997 -0.2865047 0.9208772 
0.12102 0.7620603 0.6316485 0.1335595 0.751066 0.6449553 
-0.8723613 -0.3094088 0.3699253 -0.8756452 -0.3069266 0.3703704 
0.9663977 0.1739924 -0.1710506 0.969241 0.1680827 -0.168334 
0.848873 0.361665 -0.3829817 0.8489761 0.3615409 -0.3827279 
-0.02671585 -0.9226941 0.378188 -0.0219402 -0.9250787 0.3752018 
0.8242865 -0.2435946 0.5047944 0.8353809 -0.2341456 0.4916554 
0.5027487 0.1938956 0.8382575 0.5038986 0.1950913 0.8391903 
-0.3608309 -0.9277936 -0.01385137 -0.3618429 -0.9300514 6.028604e-08 
0.6798882 -0.7148163 -0.1503185 0.6812255 -0.715064 -0.1495982 
0.9660286 -0.2473185 0.02709126 0.968927 -0.2364609 0.05965663 
0.3016072 0.9104512 -0.2741081 0.3015333 0.919956 -0.2417007 
0.8105185 0.3854222 -0.4335072 0.7997251 0.3973907 -0.4463457 
-0.5528494 -0.7453503 -0.3627506 -0.5386418 -0.7597381 -0.3616364 
0.8390322 -0.2262792 0.4866425 0.8481842 -0.2176349 0.4785842 
-0.8514604 0.3657476 0.3725874 -0.8516015 0.3659534 0.3720093 
-0.2910519 -0.3144245 0.9003391 -0.3040094 -0.3137313 0.8971968 
-0.5110055 -0.8175365 -0.2540459 -0.524753 -0.8061127 -0.2661694 
-0.9256147 -0.3522252 0.134401 -0.9256798 -0.3469717 0.1458479 
0.08943846 -0.6087952 0.7870237 0.08838835 -0.6086544 0.7871462 
0.284367 0.9287126 -0.2236499 0.2841363 0.9286841 -0.2329001 
-0.495373 -0.06515127 -0.8629266 -0.4751562 -0.06466842 -0.874993 
-0.4629089 0.563495 0.6789715 -0.4517427 0.5426782 0.7053832 
-0.7219744 0.17019 -0.6665409 -0.7436143 0.1503474 -0.6489328 
0.2516862 -0.2380237 0.9345248 0.2439601 -0.237193 0.9383522 
-0.3179125 0.9060823 0.2697804 -0.3185544 0.9065964 0.2670624 
0.6336206 0.4313483 -0.6360102 0.6337454 0.4369015 -0.6346482 
0.6235266 -0.6784161 -0.382522 0.6229863 -0.6835896 -0.3753799 
0.5923942 -0.4199123 0.6867153 0.5927976 -0.424512 0.6836823 
0.009809569 -0.8486754 -0.527288 0.01417601 -0.849515 -0.5260909 
0.4561631 -0.1251453 -0.878793 0.4215379 -0.1252053 -0.8976806 
-0.7360932 -0.568109 -0.3581286 -0.7295254 -0.5759636 -0.3645464 
-0.479713 -0.2992097 0.8213801 -0.5061985 -0.2913938 0.8093778 
-0.6237667 -0.3894295 -0.6731061 -0.6241323 -0.3918074 -0.6726965 
0.4030209 0.4088376 -0.8158239 0.4184954 0.4247502 -0.8025077 
0.6920654 -0.6263927 0.3509959 0.6733081 -0.6380827 0.3668261 
0.7615719 0.6335484 -0.1158975 0.771095 0.6224838 -0.1214631 
0.6582466 -0.710462 0.2344213 0.669451 -0.704779 0.2267781 
0.9875147 0.1193632 -0.06789578 0.9897707 0.1186671 -0.07160909 
0.3529722 0.2414486 0.9003501 0.3636145 0.2177261 0.9035648 
0.2448044 -0.782869 0.5679985 0.245429 -0.7826158 0.568197 
-0.7147348 -0.02327497 0.6960757 -0.7115477 -0.02689394 0.6999185 
-0.6829268 -0.2466855 -0.6827095 -0.6856318 -0.2494508 -0.6805572 
-0.1004155 -0.9685579 0.2176391 -0.1007344 -0.9691111 0.2175626 
-0.3602838 0.3987909 0.8415416 -0.3565614 0.394498 0.8455419 
-0.2711838 0.6554004 0.7003351 -0.2709779 0.6559945 0.6997948 
0.7254655 0.4213115 -0.5372139 0.7178144 0.4399019 -0.5348446 
-0.8305666 0.5230503 0.1764026 -0.8309458 0.5135854 0.2028733 
-0.3907283 -0.8799682 -0.2633735 -0.4011092 -0.8750989 -0.2641011 
-0.5237929 0.578082 -0.6223326 -0.5286794 0.5723809 -0.624059 
0.2876908 0.9477841 -0.1055785 0.3145926 0.9430677 -0.08886029 
-0.5106103 -0.5578792 -0.6531011 -0.5095263 -0.5549321 -0.6567193 
-0.2787536 0.454511 -0.8423754 -0.2741114 0.4557488 -0.8433519 
0.1526093 0.9299409 -0.3266512 0.1533571 0.9423263 -0.293293 
-0.2828944 0.9309832 -0.2164727 -0.2826803 0.9292088 -0.2328787 
-0.1290004 -0.9640098 0.2290186 -0.1278269 -0.9644896 0.2289231 
-0.2124229 0.05724737 -0.9718478 -0.2178819 0.04832929 -0.9729941 
0.3988826 0.9129772 0.08394372 0.3972942 0.9137423 0.08303606 
0.7408942 -0.5062218 0.4336139 0.7467074 -0.5025432 0.4305217 
-0.4420311 -0.5793902 0.6798672 -0.4369441 -0.5661715 0.6950091 
-0.8016673 0.4903636 0.3353505 -0.8113071 0.4829846 0.3253458 
0.0229151 -0.6057867 0.7909776 0.005546505 -0.5881606 0.8065029 
-0.602695 0.7399567 -0.289923 -0.6040013 0.7360079 -0.3052071 
0.6696792 -0.7167487 0.1822751 0.6549557 -0.7295079 0.1957695 
0.6753643 0.636144 0.3637857 0.6772069 0.636898 0.3643218 
-0.4536004 -0.8091963 -0.3641561 -0.4587412 -0.80563 -0.3692994 
0.3547626 0.4059046 0.8399361 0.3244614 0.4066886 0.8519965 
0.8196256 -0.1056856 -0.55741 0.818095 -0.1018493 -0.5639412 
-0.9361291 -0.3436165 -0.008441469 -0.9342842 -0.3538164 -0.008486541 
-0.9904546 -0.07060532 0.09363082 -0.9962827 -0.04416533 0.06432872 
0.3763264 -0.9192327 -0.09730655 0.3318253 -0.9353637 -0.1217506 
0.3482171 -0.4528785 0.8172029 0.3599399 -0.4651472 0.8061558 
-0.1268868 -0.4478775 0.8809268 -0.1271185 -0.4490576 0.883294 
0.6706587 0.03434437 0.7376121 0.674628 0.03766881 0.7339545 
0.4882375 -0.736407 -0.4639018 0.494159 -0.7381081 -0.4557864 
-0.3320972 -0.877746 0.3356982 -0.3317789 -0.8824418 0.3248933 
-0.5177777 -0.03741209 0.8522192 -0.5246564 -0.03494132 0.8486142 
0.2570199 0.1261989 0.9557049 0.256557 0.1252319 0.9564004 
-0.9235144 0.1897621 -0.3229167 -0.9234276 0.1846344 -0.3273923 
-0.8468535 0.5164666 0.1013379 -0.8444092 0.5208299 0.1041856 
-0.3810463 -0.8510299 -0.3576755 -0.3791128 -0.8524944 -0.3563091 
0.6602232 0.1103402 0.7389578 0.6607889 0.1096473 0.7414716 
-0.4151233 0.2477772 -0.8732716 -0.4152123 0.2478488 -0.8737597 
-0.5173835 -0.04983185 -0.8512681 -0.5176745 -0.04951299 -0.8515016 
-0.2399738 -0.6886117 -0.6795775 -0.2472879 -0.6807761 -0.6861424 
-0.5709641 0.5839616 0.5692818 -0.5747788 0.5838869 0.5691487 
0.02421851 0.6557522 -0.7500532 0.02155608 0.6600937 -0.7492989 
-0.6913725 0.1193432 0.7088609 -0.6839563 0.1258111 0.7160884 
0.1271283 -0.6359507 -0.7571116 0.1411222 -0.6533783 -0.7420374 
0.2189265 -0.5694936 0.7887323 0.2076054 -0.5585859 0.8021425 
-0.4960198 0.6445382 -0.574332 -0.5009113 0.6441073 -0.5751374 
-0.657729 -0.4353018 -0.6080067 -0.6582422 -0.4407124 -0.6075791 
-0.3064199 -0.6321879 -0.7066311 -0.3078636 -0.6314619 -0.7063985 
-0.4643472 0.8809873 -0.01634631 -0.4624457 0.8840256 -1.09903e-07 
-0.5226395 0.5044278 -0.6815044 -0.5144973 0.4927488 -0.6990178 
-0.7416165 -0.6357294 -0.1968435 -0.7444978 -0.6360372 -0.1999457 
0.01020556 -0.993649 0.08431987 0.04294524 -0.9946008 0.0711422 
-0.8844486 -0.3357725 -0.3141495 -0.8823547 -0.3413252 -0.3233973 
-0.7725384 0.3448574 0.5266111 -0.7597885 0.3605606 0.5394114 
0.2330554 -0.6392344 0.7290805 0.2241378 -0.6517106 0.7222252 
0.2154295 0.3882306 0.8942503 0.2117426 0.3908453 0.8940674 
0.930101 0.06916842 0.3509873 0.9378697 0.08032369 0.3302273 
-0.9198067 0.2396841 0.2991431 -0.9232366 0.2331231 0.2992524 
0.5387597 -0.04954523 0.8372897 0.5524729 -0.06074259 0.8294568 
0.2774521 0.8704383 -0.4003968 0.2776275 0.8856331 -0.3695413 
-0.9461693 0.1290244 0.2864709 -0.9460851 0.1229094 0.2937289 
-0.3832431 0.8321172 0.3964481 -0.3893567 0.8262302 0.4030383 
-0.7232317 -0.6831865 -0.05854663 -0.7342439 -0.6725318 -0.06897222 
-0.2978118 0.2151837 0.9267203 -0.310842 0.1866678 0.9305397 
-0.2926487 -0.878884 -0.3672645 -0.3014878 -0.8756845 -0.3729428 
0.8809209 0.3075918 -0.3494871 0.8810008 0.3063218 -0.3499159 
-0.1953325 -0.373304 0.9034067 -0.1920055 -0.3752143 0.9042903 
0.1680196 -0.8156147 0.5481985 0.1640235 -0.8084803 0.5623198 
-0.139199 -0.04878357 -0.9860797 -0.1281573 -0.07730947 -0.9875785 
-0.164857 -0.7519121 -0.6326442 -0.1683311 -0.7558798 -0.6310276 
0.05637097 -0.7362987 -0.6694574 0.0644664 -0.7286757 -0.6785036 
0.3292234 -0.4380416 0.8328944 0.3135153 -0.4207857 0.8489792 
-0.6438485 -0.3983333 -0.6484784 -0.6400179 -0.3966372 -0.6535801 
0.2470195 -0.5103406 -0.8200043 0.2335239 -0.507145 -0.8293806 
-0.6612201 -0.6219496 0.4130139 -0.6556177 -0.6162051 0.4316347 
-0.7750975 -0.4780818 -0.4062724 -0.7938468 -0.4629628 -0.3888168 
-0.1905051 -0.9229566 0.3256188 -0.1947889 -0.9251406 0.324454 
-0.8380114 0.4556413 0.2918105 -0.8259289 0.4722861 0.3065678 
0.4444098 -0.2832634 -0.847515 0.4296037 -0.3163805 -0.8438779 
0.7522073 -0.6523794 -0.0567929 0.7524067 -0.65258 -0.05652482 
-0.9392859 -0.03872856 -0.3307437 -0.939454 -0.03399081 -0.3313147 
-0.6918419 0.5136096 -0.4992868 -0.6997131 0.5107461 -0.4959731 
0.3233393 -0.2824917 -0.9006566 0.325949 -0.2769526 -0.9021003 
-0.7790618 0.4212846 0.4587092 -0.7888628 0.4132615 0.4512253 
0.7910051 -0.2758306 -0.5414352 0.7981386 -0.2528549 -0.5425968 
-0.03071378 -0.1046504 -0.9903179 -0.03052784 -0.1083449 -0.9915764 
-0.9100033 0.2311978 0.3348209 -0.9099292 0.2336684 0.3361779 
-0.5613375 0.7225808 -0.3963063 -0.5609857 0.7224146 -0.3979865 
0.2568004 0.4317329 0.8609408 0.2404897 0.433745 0.8657138 
0.2359787 0.891793 -0.3769311 0.2357737 0.8985317 -0.366393 
-0.2027466 -0.5905925 -0.7776867 -0.1834727 -0.5712188 -0.798929 
0.6886735 0.1513641 0.7078415 0.668313 0.1297155 0.7315201 
0.9785264 0.1638957 -0.09251003 0.9796126 0.1626447 -0.09801763 
0.6852613 0.05375037 -0.7218236 0.6687109 0.06971816 -0.738042 
-0.9946353 0.02958064 -0.05798488 -0.9965383 0.0302889 -0.0733316 
-0.07951692 0.7006732 -0.7041132 -0.06349142 0.6856287 -0.7221203 
-0.6081892 -0.711293 0.3472619 -0.6117631 -0.7294024 0.3045782 
0.8844165 -0.4410464 -0.1359344 0.8956333 -0.4228086 -0.135902 
-0.9153711 0.1272963 0.3728218 -0.92691 0.1431469 0.3427101 
0.5880782 0.6871374 0.4198616 0.5834997 0.6798624 0.4440607 
0.2294742 0.6500188 0.7200033 0.2330143 0.6516259 0.7189024 
0.9892285 -0.01130351 -0.1164247 0.9935103 0.006824765 -0.09469821 
-0.1631927 -0.03305486 0.9834448 -0.1699299 -0.01909248 0.9834914 
-0.8183472 0.4762235 -0.3130002 -0.8158523 0.4665791 -0.3349608 
-0.7976233 0.3047676 -0.517548 -0.7965698 0.3083667 -0.5177315 
0.1877891 0.9772173 -0.05675589 0.2005429 0.9750063 -0.05958826 
0.4333294 -0.7229029 0.5320172 0.4442352 -0.7272069 0.5219423 
0.1022158 -0.2654466 0.9553877 0.09665297 -0.2726509 0.9541408 
-0.9390287 0.1758442 0.2884241 -0.9389837 0.1712576 0.2916087 
-0.6813809 0.6552292 0.3197199 -0.6555616 0.673005 0.3407986 
0.1701198 -0.6737268 -0.7158737 0.1454716 -0.6512828 -0.7427804 
0.8030048 0.5898539 0.01793132 0.8029462 0.5921236 0.01594406 
0.2188993 -0.9581832 0.1694001 0.1855322 -0.9707915 0.1420454 
0.6655124 -0.377385 0.639024 0.6553487 -0.3648557 0.6581901 
0.4349682 0.5638702 0.6962926 0.4331401 0.5564042 0.7058662 
0.3742488 -0.5649635 -0.7311687 0.3780848 -0.5653826 -0.7305979 
0.6480578 0.6260312 -0.4255495 0.6452119 0.6241854 -0.4354146 
0.87868 -0.4398733 -0.1669681 0.8873986 -0.4256814 -0.1667184 
-0.713925 -0.5736913 0.3951236 -0.7156051 -0.5807664 0.3821564 
-0.5871655 0.1038238 -0.799521 -0.5539783 0.1180767 -0.8233818 
-0.7405537 -0.5923228 0.3061764 -0.7409517 -0.5921918 0.3057649 
-0.1500465 -0.3615504 0.9157139 -0.1476455 -0.3623533 0.9176095 
-0.4606237 -0.8828275 0.01645047 -0.4588764 -0.8858845 -3.456344e-08 
-0.1227961 -0.988639 -0.02606723 -0.1188546 -0.990087 -0.02971758 
-0.990583 -0.1007644 0.04897437 -0.9935442 -0.08773383 0.03465567 
-0.9087793 0.009883366 0.4081119 -0.912102 1.490107e-09 0.4085356 
-0.5875846 -0.7036945 -0.3941964 -0.5811848 -0.6944478 -0.4212765 
0.5452715 -0.5970043 0.5819318 0.5604508 -0.5919756 0.5740521 
0.2532221 0.9265846 -0.2696599 0.2520063 0.9388858 -0.2316617 
-0.6847178 0.2509086 0.6793271 -0.6847274 0.2505215 0.6810818 
0.9944304 0.003878776 -0.06020009 0.9948325 -0.003938995 -0.08170794 
0.1179219 0.5090398 -0.8492865 0.09613688 0.4727843 -0.8741936 
-0.9167126 0.3147471 -0.2387824 -0.9216536 0.3322997 -0.199444 
-0.0142197 0.7666905 -0.6362703 -0.01639673 0.7659107 -0.6392607 
-0.06354892 0.4551968 0.8839367 -0.08037914 0.4807354 0.8707817 
-0.303908 -0.9440813 0.08662231 -0.3108623 -0.9446971 0.08174514 
-0.8608717 0.5016708 0.04297346 -0.8783873 0.4719233 0.04265492 
0.6633795 0.7374119 0.09806758 0.6705092 0.7333063 0.1022151 
-0.9086937 0.08194999 -0.4074255 -0.900902 0.09050184 -0.422053 
-0.5799425 0.007625541 0.8103694 -0.5829866 0.00982004 0.8103499 
-0.149876 0.4150375 -0.8929777 -0.1570833 0.4301245 -0.8863708 
0.1309752 -0.9384965 0.3119669 0.1319404 -0.9478763 0.28979 
-0.1348795 0.4392697 -0.8837255 -0.1396697 0.4484678 -0.8813573 
0.8859867 -0.3337252 0.3121767 0.8824785 -0.3407391 0.3238031 
0.2434716 -0.8514541 -0.4596533 0.2341632 -0.8359727 -0.4947575 
-0.8437932 0.3402109 -0.4085112 -0.8498892 0.3267769 -0.4089236 
0.9262486 0.3579175 -0.09723487 0.9254814 0.3720261 -0.05996203 
-0.8180056 0.5471414 -0.1576982 -0.8117216 0.5605052 -0.1540301 
0.1143872 -0.9748639 0.1754977 0.1080159 -0.9757669 0.1792942 
-0.008081172 0.596388 -0.7979834 -0.01131981 0.5946004 -0.8012472 
0.2997316 -0.6953062 0.6522019 0.2996708 -0.6959714 0.6514497 
-0.7877704 0.2133496 -0.5733541 -0.7855635 0.2354992 -0.5689576 
0.3824888 -0.8994243 -0.1981797 0.3725376 -0.9037454 -0.201774 
0.3597699 -0.8373005 -0.4054384 0.3260307 -0.8442048 -0.422673 
0.9406683 0.1974666 0.267991 0.9346941 0.2326534 0.2674603 
0.8714283 -0.07789694 -0.4754915 0.8710704 -0.08171149 -0.4800627 
-0.8678619 -0.2474999 -0.4237959 -0.851756 -0.2582451 -0.4543934 
0.7867723 0.5550056 0.2604563 0.7864896 0.5553612 0.2608451 
0.7989539 -0.08415675 -0.5915874 0.807009 -0.09275705 -0.5806502 
0.6432218 0.6416854 0.4093092 0.6379336 0.636111 0.427837 
-0.794336 0.5624731 0.2245636 -0.7957815 0.561193 0.2237727 
0.8979956 -0.3327971 -0.2788705 0.8984758 -0.3321099 -0.2804846 
-0.5867912 -0.4760705 -0.6488796 -0.5850984 -0.4805232 -0.649729 
0.7204674 0.6851737 0.06675453 0.727542 0.6800731 0.0604644 
0.04144981 -0.9800612 -0.1772342 0.02772813 -0.9803908 -0.1840935 
0.3063227 0.9445504 0.07193118 0.305621 0.9469861 0.07175262 
-0.9303263 0.02639159 0.3542004 -0.9323946 -8.475444e-08 0.3552529 
-0.9973479 -0.02909111 0.01279837 -0.9979188 -0.02793081 0.01363335 
0.9733138 0.216081 0.01318346 0.9772937 0.2076073 0.01322534 
0.7562917 -0.09579906 0.643736 0.7421804 -0.07961862 0.6623659 
-0.4134715 -0.8839993 -0.2031613 -0.4119056 -0.8871999 -0.1981024 
0.6500956 0.7492042 -0.105292 0.6547744 0.7458061 -0.1010539 
0.1818465 0.5597448 -0.804887 0.1886853 0.5687134 -0.7998945 
-0.5368925 0.7306631 -0.4134583 -0.535934 0.7262478 -0.4235884 
0.05832535 0.7578898 -0.6461156 0.04469191 0.747838 -0.6619079 
-0.1488306 0.2109889 0.9628437 -0.1300942 0.1934248 0.9715033 
0.7818481 -0.6180412 -0.009484679 0.7812048 -0.6192019 -0.01088215 
0.1258254 0.04502194 0.988469 0.1360157 0.04521081 0.987448 
-0.911532 0.0832348 0.4020829 -0.9103646 0.08385592 0.4044943 
-0.1636233 -0.1113891 0.9769562 -0.1642085 -0.1114297 0.9784022 
0.9817402 -0.1418478 -0.09479916 0.9825976 -0.1478443 -0.09473268 
-0.7983428 -0.1966299 0.5645171 -0.7986768 -0.1956311 0.5641882 
0.08383242 -0.228965 -0.9654596 0.08519888 -0.2249097 -0.968363 
0.07792374 -0.9775608 0.1781967 0.101964 -0.9780947 0.1692165 
0.7461568 -0.2448725 -0.6170117 0.7450832 -0.2467711 -0.6175369 
-0.538817 -0.0134738 0.8407645 -0.533761 -0.0155147 0.844274 
0.7468891 0.2580489 0.6101204 0.7482099 0.2548556 0.6110773 
0.8378539 0.4898176 -0.2261195 0.8379083 0.4872732 -0.233685 
-0.4724009 0.8763639 0.04197047 -0.4737537 0.8761139 0.04399134 
-0.09471397 0.8798453 -0.4598114 -0.09419014 0.8839772 -0.4521347 
-0.9605778 -0.2543283 -0.08054183 -0.9622114 -0.2592374 -0.07345196 
-0.3347564 0.8838158 0.3155665 -0.3387639 0.8845804 0.3166057 
-0.2085248 0.9689738 -0.09809344 -0.225586 0.9680754 -0.08640782 
-0.2035111 0.7457494 -0.6286849 -0.2216068 0.7470986 -0.6231371 
0.6043121 -0.4622938 0.6436671 0.5948566 -0.4694498 0.6484675 
0.9058752 -0.348789 -0.2254577 0.9086472 -0.354816 -0.212589 
0.7087687 -0.1868109 -0.6770058 0.7054586 -0.1955846 -0.6781389 
0.2141391 -0.3466297 0.9102842 0.2096867 -0.3498112 0.9101006 
0.2380037 0.09530514 0.9642546 0.241583 0.099889 0.9631701 
0.1544833 0.4248132 -0.8872945 0.1594741 0.4360764 -0.8833373 
-0.8821498 -0.4188222 0.1987903 -0.8789737 -0.4286206 0.1982465 
0.400642 0.2477944 -0.8792261 0.3842399 0.2476137 -0.8879088 
-0.3861146 0.7808114 0.4856294 -0.3815129 0.7858295 0.4820904 
-0.404172 -0.6907347 -0.597246 -0.3925214 -0.692627 -0.6039162 
0.8730406 0.05707999 0.4759573 0.8679634 0.06552353 0.4874671 
-0.09920359 -0.4678882 0.8737179 -0.09986555 -0.4681128 0.8764555 
0.7491834 0.1939439 -0.6286685 0.7371017 0.1783103 -0.64981 
0.3790562 0.7419137 -0.5483378 0.3790943 0.7410386 -0.5493588 
0.6816517 0.3895719 0.6154569 0.6840941 0.3969247 0.6089274 
0.04995789 -0.1461471 0.9853517 0.04861843 -0.1513307 0.9855719 
0.8022401 -0.2544478 0.5338147 0.7998713 -0.2575285 0.5378494 
-0.2696434 -0.9228052 0.2673039 -0.2685342 -0.934307 0.2326696 
-0.1731061 0.8509529 -0.4902119 -0.173157 0.8509882 -0.4925519 
-0.4402595 -0.5017946 0.7408489 -0.4554996 -0.5255335 0.7158017 
-0.6177497 0.7820604 -0.01374892 -0.6178704 0.7822553 -0.01415978 
0.6445127 -0.1445293 -0.7463792 0.6395579 -0.1386277 -0.7542503 
0.3688744 0.9071606 -0.1833728 0.3636592 0.9106405 -0.1843231 
-0.3574335 0.492841 -0.7896121 -0.3824766 0.4955078 -0.7795531 
-0.3962705 0.8749774 0.269612 -0.4155893 0.8647508 0.2752188 
-0.5960875 0.07652663 0.7970998 -0.5652816 0.04759555 0.8227527 
0.1625091 0.3597596 0.9142362 0.1642531 0.3534481 0.9185705 
0.9363159 0.2042702 -0.2759792 0.931743 0.2327744 -0.275649 
0.6472092 0.6578555 0.3761415 0.6483281 0.6627698 0.3686097 
0.4420619 0.1620322 0.8786491 0.4252255 0.1618241 0.8887063 
-0.6243794 -0.2766291 0.7274219 -0.6238562 -0.2766516 0.7279529 
-0.8610557 -0.362623 0.3492519 -0.8673508 -0.3786315 0.3172259 
0.984213 -0.1034341 0.1341122 0.9832231 -0.1022442 0.140754 
0.9721677 0.2016678 -0.09557158 0.9718775 0.2038051 -0.09587506 
0.5664444 -0.07451462 0.8167186 0.5524723 -0.06074385 0.829457 
-0.1653516 -0.2634687 -0.9501384 -0.1719897 -0.2656142 -0.948104 
0.3645518 -0.2881158 0.8815916 0.3700659 -0.2871624 0.8818708 
0.1650505 -0.6962134 -0.6978084 0.1639327 -0.6962987 -0.697949 
-0.8739768 -0.04721414 -0.4758667 -0.8760524 -0.04696575 -0.4736062 
-0.613588 0.06981645 -0.7853693 -0.6125603 0.06973547 -0.7863862 
0.4658802 0.6356554 0.6099251 0.4714516 0.6336618 0.6083254 
-0.6814834 -0.6152666 0.3893152 -0.6868021 -0.6283028 0.3628957 
0.01710394 0.996208 0.04245099 0.01821905 0.9969686 0.04091711 
0.4011354 0.3681199 -0.8362123 0.3989076 0.3644427 -0.8396391 
-0.3557001 0.9194853 -0.1411025 -0.3441799 0.9257686 -0.1460358 
0.06823646 -0.2635055 0.9588085 0.06270351 -0.2602207 0.9604437 
-0.1959279 -0.7454036 -0.6316646 -0.1975066 -0.7455504 -0.6357679 
0.4096893 0.2102259 -0.8841355 0.4180562 0.18966 -0.8854504 
0.9905159 -0.04598382 0.1025098 0.9908001 -0.04004429 0.1138229 
0.5619844 0.2312389 -0.7924614 0.5605528 0.2302204 -0.7939646 
-0.9024248 -0.4036446 -0.1340303 -0.8961748 -0.4226192 -0.1338773 
0.9575093 -0.05628323 0.2710049 0.9555731 -0.050062 0.2812918 
-0.4706935 -0.8451883 0.2359025 -0.468274 -0.8499687 0.2337562 
0.5417656 0.6634083 -0.5118999 0.5426308 0.6605537 -0.5161142 
-0.9651623 0.1468651 -0.2001904 -0.9647646 0.1549044 -0.2015479 
0.8899801 -0.384968 -0.2296977 0.8911873 -0.385042 -0.2302354 
-0.7661698 -0.5776018 -0.2690164 -0.7661734 -0.5776702 -0.2692324 
0.1779502 -0.3981059 -0.8962216 0.1872197 -0.4187155 -0.8861116 
0.8022099 0.3410491 -0.4851674 0.8001519 0.3428914 -0.4878071 
0.03023395 0.1916232 -0.9772249 0.01422053 0.1700922 -0.9830163 
0.88493 0.1359686 0.4364342 0.8815545 0.1416428 0.4472334 
-0.01801917 -0.8387933 -0.5411499 -0.04030608 -0.8222743 -0.5670494 
-0.8042769 0.2422307 -0.5360451 -0.8106648 0.2343675 -0.5335472 
-0.7983025 0.3992921 0.443342 -0.8064581 0.3943534 0.437464 
0.05037171 -0.8971047 -0.4317219 0.05007034 -0.8978614 -0.4306485 
0.7334971 -0.2293397 0.6359344 0.71858 -0.2104364 0.6614457 
0.600189 -0.301251 0.7364337 0.5999609 -0.3009081 0.7368797 
0.4365194 -0.8773592 0.1770983 0.4294094 -0.8844028 0.1701286 
0.2721218 -0.04729358 -0.9580922 0.2885106 -0.07385662 -0.9529966 
-0.9892009 -0.07427337 -0.1137457 -0.9902716 -0.0781678 -0.09994382 
-0.8870633 -0.3899412 -0.2333575 -0.8881792 -0.3902496 -0.2332759 
0.7465975 -0.3956106 -0.5271865 0.7519963 -0.3800039 -0.5348406 
-0.5034506 -0.8505018 0.1387911 -0.4786152 -0.8679993 0.1244996 
0.538242 -0.2129886 0.812317 0.5405626 -0.2091232 0.8126671 
-0.6396283 0.5361449 -0.5465719 -0.6134543 0.5823776 -0.532092 
0.5870075 -0.1021747 0.7998955 0.5866317 -0.1016579 0.8002512 
-0.7606407 0.2561294 -0.593688 -0.7551359 0.2719439 -0.5940554 
-0.2668628 0.7736173 0.5689591 -0.2671262 0.7735188 0.5691372 
-0.7858269 0.4679645 -0.3959877 -0.7861472 0.4652436 -0.403476 
-0.7020122 0.4003375 0.5847482 -0.6856358 0.4447961 0.5750402 
-0.8189796 -0.3331487 0.4623563 -0.8141744 -0.3461778 0.4611969 
0.1417633 0.977239 0.1392576 0.1418507 0.9775527 0.1519935 
0.5737011 0.6112653 -0.5392411 0.5699381 0.6129381 -0.5433625 
0.4185546 -0.5868661 0.6888963 0.419887 -0.5821993 0.6925069 
0.2744609 -0.7086064 -0.6474659 0.2275275 -0.7112169 -0.6642627 
0.5521036 -0.8249491 -0.08664137 0.5563543 -0.8243715 -0.08373283 
-0.7994245 -0.06065333 0.59422 -0.8000827 -0.06017165 0.593256 
0.5478516 -0.7419832 0.3763232 0.5310041 -0.7592277 0.3723289 
0.461992 0.7764436 -0.4228515 0.4373907 0.8038771 -0.4004943 
-0.6553652 -0.7283666 0.184942 -0.6582994 -0.725959 0.1864649 
-0.2169337 0.9727019 -0.01746159 -0.1949537 0.9796298 -0.03136076 
0.4155639 0.8517593 0.3078003 0.4160171 0.8536652 0.3080565 
0.8537033 0.5043308 -0.112655 0.8549908 0.5036871 -0.1108238 
-0.9448159 -0.02695233 0.3162661 -0.9453913 -0.01129897 0.3173426 
0.3633998 0.8047993 -0.4627649 0.3643755 0.8033018 -0.465015 
0.9420538 0.1633368 0.2861625 0.9326082 0.1348718 0.3316479 
-0.1410166 0.3451829 0.9234959 -0.1412495 0.341745 0.9276596 
0.09094631 -0.684626 -0.7180576 0.0825906 -0.6781715 -0.7276374 
0.04530308 0.7803361 -0.6198597 0.02944568 0.7675564 -0.6371022 
-0.1323528 -0.937702 -0.3140542 -0.1334648 -0.9377859 -0.3135601 
0.28313 0.9101394 -0.2976434 0.2824135 0.9103836 -0.2972967 
-0.4475497 -0.6087053 -0.6487443 -0.4438708 -0.6197448 -0.6442605 
-0.439091 -0.7726158 -0.4536002 -0.4143493 -0.8000008 -0.4313666 
-0.0864781 -0.3375913 0.9330176 -0.08521522 -0.3377436 0.9349881 
-0.7444117 0.2148968 0.6290706 -0.7295034 0.1957795 0.6549588 
0.9133562 -0.1232765 0.3799574 0.926861 -0.143271 0.3427732 
-0.01600628 -0.6346365 -0.767981 -0.001492907 -0.6523563 -0.7553171 
0.341961 0.9261994 -0.1324722 0.3376804 0.9308165 -0.1332588 
-0.7571425 -0.1517551 -0.6297967 -0.7518458 -0.1444135 -0.6398187 
-0.3833012 -0.6790023 -0.6212477 -0.3633994 -0.6834214 -0.6313305 
0.9617334 -0.0546381 -0.2557594 0.9705672 -0.07593126 -0.2197309 
0.4074724 0.2785227 -0.8671286 0.3962698 0.2780547 -0.8731829 
0.971575 -0.1927038 0.1217459 0.9717557 -0.1933927 0.1222843 
-0.2571106 -0.919219 0.2956965 -0.2559615 -0.9209857 0.2908934 
-0.6061174 0.580078 0.5378124 -0.6055892 0.5799307 0.5388866 
0.01924661 0.9780887 -0.1919499 0.01930775 0.9767251 -0.208299 
-0.9223015 -0.3736801 -0.06463026 -0.9220291 -0.3749265 -0.06497533 
0.1075312 -0.9823845 -0.1306491 0.107432 -0.9815591 -0.1490804 
-0.6902204 -0.7073365 0.1395905 -0.6946955 -0.7035893 0.1423914 
0.8136156 0.2939566 0.4991379 0.830502 0.2405846 0.5014777 
0.09037821 0.9916383 -0.005168293 0.09394713 0.993529 -0.007517824 
-0.8688766 0.3906419 -0.2935265 -0.8681048 0.3837322 -0.3100821 
0.8389974 -0.341498 0.4171706 0.8474149 -0.3331042 0.4088232 
-0.9164079 0.3859816 -0.07487029 -0.9045121 0.414589 -0.07472979 
0.8323846 -0.01500691 -0.5502364 0.823516 -0.003207901 -0.5634835 
-0.9663646 0.03373122 0.2432672 -0.9660227 0.03385283 0.2489465 
-0.3566073 -0.3815992 0.8511924 -0.3075827 -0.3831131 0.8707966 
-0.002935579 0.4706737 -0.8778608 -1.120614e-07 0.4685106 -0.880867 
0.6205125 -0.1952585 -0.7552514 0.6185789 -0.2016106 -0.755603 
0.9566797 -0.1172209 -0.2549211 0.9597679 -0.1213416 -0.2451036 
0.6015842 0.2353013 0.7598409 0.6076605 0.2193783 0.7606019 
-0.6924037 0.5890211 -0.4144506 -0.6969013 0.6042758 -0.3838093 
-0.5987717 -0.3475991 -0.7165768 -0.5969086 -0.3441229 -0.7217194 
-0.01365082 -0.901082 -0.428416 -0.05715996 -0.8873426 -0.4559215 
-0.8185852 0.5259203 0.2172436 -0.8186392 0.5254408 0.2200262 
0.5225745 -0.7543185 -0.3866195 0.5247522 -0.7507828 -0.3950672 
0.1049583 0.4480866 0.8841481 0.1147184 0.4634091 0.8782166 
0.7966903 0.1057343 -0.5914232 0.7945464 0.107693 -0.5939688 
0.5400251 0.8324349 0.0923406 0.5517417 0.8271964 0.083459 
0.8677955 0.1299071 0.4732838 0.8795521 0.1216107 0.4597667 
0.767691 -0.3849669 -0.5044781 0.768163 -0.3814538 -0.511766 
0.9546314 0.1168301 0.2639251 0.9544429 0.1134985 0.266591 
-0.5657355 0.729624 0.3762548 -0.5361021 0.7595684 0.3651917 
0.7005031 0.4208998 -0.5699058 0.6920713 0.4456143 -0.5656116 
-0.292412 0.8215764 0.4829683 -0.2938368 0.8217396 0.486637 
0.4056503 0.3066369 0.8580729 0.4006523 0.3197833 0.85815 
-0.9214686 -0.1962621 -0.3253388 -0.9202616 -0.1888204 -0.3337881 
-0.2647083 -0.5641673 0.7790817 -0.2642052 -0.5643985 0.7791064 
0.3349532 0.02867737 -0.9381753 0.3335084 0.03634772 -0.939732 
0.9533092 0.26565 0.1234865 0.9581311 0.2574961 0.1109476 
-0.4229712 -0.8628122 -0.2661896 -0.4463145 -0.8523165 -0.271714 
-0.07224148 -0.3987769 -0.9132996 -0.06472521 -0.3983677 -0.9142994 
-0.1074637 0.7133726 -0.6879493 -0.1016834 0.7198414 -0.6829856 
-0.3787303 0.9082789 -0.1552901 -0.3549675 0.9173907 -0.1672386 
0.09244879 0.6632754 0.7381362 0.09831502 0.6720324 0.7321794 
-0.6159473 -0.7519616 0.2311584 -0.6166828 -0.7500287 0.2359408 
0.4281763 0.7957844 -0.4218026 0.4243883 0.8024204 -0.4189432 
0.7442793 0.222279 -0.6271611 0.7270446 0.2004135 -0.6565358 
-0.1352134 -0.5916206 -0.7905808 -0.1359491 -0.5940531 -0.7901345 
-0.9248409 0.3590128 0.1162668 -0.9247013 0.3646091 0.1005093 
0.1636826 0.3566016 -0.9152328 0.1637343 0.3531846 -0.9187754 
-0.1560096 -0.891795 0.4167515 -0.1557524 -0.8903291 0.4246588 
-0.4962252 0.5277436 0.6849182 -0.4882681 0.5152966 0.7038774 
0.9577953 0.04492812 -0.2731043 0.9553067 0.03752729 -0.2859496 
-0.6056767 -0.5532349 -0.5652959 -0.5777609 -0.5659867 -0.5850376 
0.9901195 0.02415546 0.1067954 0.9945571 0.006003916 0.0873111 
0.5434902 0.8374132 0.01506705 0.5404933 0.839231 0.01453271 
0.1152858 0.9728758 0.1878592 0.1152961 0.9809158 0.1498461 
-0.8265425 -0.3804805 -0.4095311 -0.8036547 -0.4044563 -0.4346788 
0.8692728 0.4089022 0.2706785 0.8648456 0.3904175 0.3117008 
-0.4044819 -0.7350141 0.5380191 -0.4010892 -0.7407055 0.5364887 
-0.249416 -0.286259 -0.9216942 -0.232926 -0.2858572 -0.9280639 
-0.03165483 -0.8049051 0.5872964 -0.02281364 -0.8140843 0.578378 
-0.8255448 0.2706503 0.4890718 -0.834196 0.2621817 0.4808211 
0.9320756 -0.2670619 0.231992 0.9436907 -0.2298236 0.2310116 
0.2854012 -0.6427805 -0.7058257 0.3014714 -0.6436802 -0.7004972 
0.2906725 0.2211236 0.9277629 0.3010472 0.1983203 0.9306325 
-0.512617 0.7881532 0.3331004 -0.5408356 0.7598844 0.3585655 
0.6082563 -0.5978397 0.514482 0.6115139 -0.6039255 0.5064862 
0.3362975 0.2181228 0.9127598 0.3423707 0.2053244 0.9158359 
-0.6434473 0.01954675 0.7607227 -0.6506574 0.01372418 0.7572211 
0.7824146 0.6031201 0.1367046 0.7640048 0.622543 0.156076 
0.5018595 -0.7077695 0.4898661 0.5002688 -0.6961824 0.5099781 
0.1204156 -0.988748 -0.07602735 0.1069451 -0.9915817 -0.06038877 
0.06152232 -0.6197198 0.7805919 0.06007333 -0.6196191 0.7808282 
-0.7494172 0.02987486 0.6565013 -0.7478908 0.02624959 0.6619041 
-0.3494813 -0.3239844 0.8753275 -0.3624891 -0.2979022 0.8806028 
-0.4991107 -0.8376824 0.2061095 -0.491453 -0.8379954 0.233553 
0.7657592 0.2283359 0.5996587 0.7635516 0.2253969 0.6038381 
-0.8085903 0.5739288 -0.1033949 -0.825039 0.5530509 -0.1129655 
0.02564576 -0.9874622 0.1430383 0.06753155 -0.9885319 0.1263663 
-0.5988942 0.76579 0.2306355 -0.5995893 0.7658967 0.2303659 
-0.1622234 0.8931856 0.4111277 -0.1651412 0.8943447 0.4103082 
0.5877328 0.01704092 0.8045808 0.5913813 0.01385077 0.8035476 
-0.8451177 -0.04294905 -0.5279548 -0.8358372 -0.05576649 -0.5417312 
0.6222825 0.2095612 0.7495084 0.6190035 0.221011 0.7507054 
-0.4590712 -0.6965037 0.5450387 -0.4915004 -0.6874137 0.5317146 
0.6327115 0.7491863 0.1776553 0.635496 0.7483788 0.1782379 
-0.3634249 -0.8692194 0.325459 -0.3640849 -0.8780368 0.3066031 
-0.9277049 -0.2503895 0.2675253 -0.9350402 -0.232639 0.2665 
0.1480605 0.8907588 0.42237 0.1478779 0.8924333 0.4239249 
0.03293879 -0.3862275 -0.918093 2.138674e-08 -0.3870845 -0.9210764 
0.6246597 -0.1140864 0.769338 0.6274598 -0.1130441 0.7681206 
-0.542799 0.7547778 0.3578572 -0.538038 0.7596972 0.3624826 
0.06402464 0.1969384 0.9744997 0.05625309 0.2087364 0.9752468 
0.6272204 -0.3979484 0.6649567 0.6222881 -0.3937321 0.6733432 
0.166508 -0.9799083 -0.08314466 0.1723443 -0.9801627 -0.07738614 
-0.7698349 -0.07520118 0.6318724 -0.7660624 -0.07775887 0.636185 
-0.4584938 0.8790245 -0.09794551 -0.468499 0.8760325 -0.1046301 
-0.1510945 0.5166152 0.8421189 -0.148901 0.5086557 0.8473446 
-0.1508833 0.03549778 0.9854077 -0.1370741 0.07063297 0.986265 
-0.4318728 0.5724164 0.6916501 -0.4275996 0.5604928 0.7060095 
0.8781959 0.1728138 -0.4364133 0.8841103 0.167203 -0.4312399 
0.3417332 -0.7143608 -0.6050435 0.3467863 -0.7094213 -0.6093611 
-0.1160087 0.9828855 -0.1227273 -0.1158867 0.9808674 -0.1499045 
-0.2775721 -0.6758433 0.6789614 -0.2758614 -0.6767282 0.6788477 
-0.6232076 -0.7544639 0.19095 -0.6296577 -0.7491139 0.1955308 
0.9413093 0.2699195 -0.1838057 0.9419541 0.2705613 -0.1836861 
-0.366529 0.0905256 -0.9235013 -0.357432 0.09100942 -0.9272892 
0.03327762 -0.6360438 0.7667862 0.0152428 -0.6576588 0.7511928 
-0.2204298 -0.8905643 0.3889065 -0.2302125 -0.8912096 0.3850035 
-0.7629564 0.1573637 0.6215719 -0.7522014 0.1435957 0.6395779 
-0.8430418 0.2035734 0.4906468 -0.8466866 0.2006096 0.4887262 
0.04155668 0.08173712 -0.9924378 0.02826401 0.1070411 -0.9917612 
0.4423838 -0.8918419 -0.03926904 0.4410912 -0.894402 -0.01628314 
0.06709678 -0.2588179 -0.9599841 0.07103028 -0.2512497 -0.962212 
-0.2747397 0.1332328 -0.9495754 -0.2745127 0.1350954 -0.9494891 
0.1777993 -0.4281651 -0.8813671 0.1742035 -0.4268597 -0.8848102 
-0.2092047 -0.8822084 0.4142184 -0.2085727 -0.876214 0.4295838 
-0.1816784 0.9790021 -0.01861831 -0.1868678 0.9807311 -0.01653656 
0.4190591 0.002022182 -0.9066655 0.4236578 0.002007328 -0.9051015 
0.06792584 0.8819837 0.4588563 0.06756452 0.8822647 0.4596153 
0.1105461 0.615633 -0.7776876 0.1070651 0.6134841 -0.7802516 
-0.07624871 -0.6777583 -0.7262063 -0.07675081 -0.6780864 -0.7283338 
-0.7602206 0.2870238 0.577242 -0.759366 0.2918104 0.5781323 
-0.8739996 0.4151403 -0.2446876 -0.8743626 0.4141687 -0.2472396 
-0.2914955 0.6856826 0.6643754 -0.2913545 0.686364 0.6636696 
0.1651688 0.6874096 0.7052759 0.1486267 0.6726965 0.7229062 
-0.04639301 -0.6344873 0.7681077 -0.04491763 -0.6344545 0.7692411 
-0.9901056 0.07514254 -0.09432396 -0.9919195 0.06689212 -0.09163249 
-0.8276815 -0.5507433 0.06758104 -0.831417 -0.5487276 0.06458712 
0.3497956 0.1920125 0.913417 0.3441726 0.2063762 0.9147951 
-0.8828915 0.4037626 0.2269877 -0.8904275 0.3882925 0.227011 
0.5173522 -0.03458762 -0.852773 0.5194596 -0.03373218 -0.8517768 
0.7227489 -0.6744547 0.136683 0.7222687 -0.6755427 0.1347841 
0.4296826 -0.4714121 -0.767818 0.3825053 -0.4899099 -0.7831513 
-0.2905867 0.9050034 -0.3040143 -0.2899743 0.907281 -0.2993519 
0.1071739 -0.9441635 -0.300328 0.1002909 -0.9450657 -0.3038975 
0.5343143 -0.7046875 0.4578271 0.5397478 -0.7097233 0.4478617 
0.3608441 0.7690998 0.524695 0.3631171 0.7661517 0.5286738 
-0.9786586 0.06584506 0.1782266 -0.9775223 0.06591236 0.1871557 
0.4342416 0.2623571 -0.8614762 0.4389395 0.2657848 -0.8578603 
-0.5513714 0.4259496 -0.7134622 -0.5549228 0.4227937 -0.7136312 
0.7079661 -0.690357 -0.136014 0.7097768 -0.6891788 -0.1344855 
-0.5403808 -0.3934006 -0.7396268 -0.5437205 -0.3948191 -0.7394266 
-0.2999681 -0.9014525 0.3037766 -0.2993135 -0.9026829 0.3032669 
-0.7915099 0.6053239 0.03289121 -0.7901059 0.6079696 0.03535196 
0.1462432 -0.4631263 0.8698341 0.1373026 -0.4499484 0.8811209 
0.5002592 0.8381146 -0.2022185 0.4916646 0.8462529 -0.1956766 
-0.02364687 0.9943728 -0.06424031 -0.04537807 0.9945338 -0.07199035 
-0.4203837 -0.2662695 -0.866047 -0.4219632 -0.2675194 -0.8653427 
0.6799862 0.1193637 0.7194964 0.66389 0.1017383 0.7392315 
0.07500141 0.7264148 -0.6778317 0.08101064 0.7336234 -0.6717792 
0.8601193 0.1188933 -0.489287 0.8763368 0.1060355 -0.46779 
0.5724303 -0.05036868 -0.8151476 0.5475997 -0.06056177 -0.8323591 
0.4316764 -0.8320338 -0.3406378 0.4315246 -0.8330369 -0.3390849 
-0.6207885 0.04317706 0.7795638 -0.6284905 0.03576047 0.7741226 
0.8870365 -0.2321506 -0.396619 0.8871134 -0.2282605 -0.3989772 
0.4135673 -0.377295 -0.8254723 0.4073451 -0.3903082 -0.8234326 
-0.3685697 0.8645518 0.3330415 -0.3403386 0.8847764 0.3140371 
-0.3468958 -0.608613 -0.7110622 -0.3501716 -0.6064308 -0.7111589 
-0.3998972 0.4268027 -0.8074434 -0.3788344 0.4351332 -0.814358 
-0.4677105 -0.08839175 -0.876163 -0.4785444 -0.08773665 -0.8714358 
0.08809155 -0.5639279 0.816957 0.07937194 -0.5546541 0.8258218 
0.4596075 -0.6050153 -0.6440876 0.4626885 -0.6020111 -0.6473463 
-0.72373 -0.6745191 -0.1272673 -0.7184716 -0.6823011 -0.1197229 
0.4789925 0.841051 -0.2343066 0.4734467 0.8489428 -0.2262593 
0.0004339463 0.9265504 -0.3713705 0.0004359028 0.9261855 -0.3723199 
-0.8863834 -0.07806072 -0.4484135 -0.8881835 -0.07777944 -0.447586 
0.1101697 -0.3800157 -0.9156037 0.1241989 -0.3530572 -0.9257324 
0.1857554 0.7494628 -0.6302422 0.1875042 0.7496543 -0.6345241 
0.9664489 0.02737088 -0.2452152 0.965613 0.02852143 -0.2519461 
-0.1104416 -0.3476448 -0.9276514 -0.1189677 -0.3303826 -0.9361713 
-0.0271755 0.7986512 0.595713 -0.013799 0.8114937 0.5815751 
-0.4573975 0.858733 -0.213198 -0.4530809 0.8578167 -0.2338898 
-0.4643652 -0.6627491 0.5818061 -0.4993282 -0.6533599 0.5669656 
0.2533841 0.703983 -0.6599801 0.2548181 0.7075309 -0.6559712 
-0.9239589 -0.3635789 0.101911 -0.9239516 -0.363842 0.1024551 
-0.7829342 -0.04229696 0.6165774 -0.7846104 -0.04394618 0.6149849 
-0.5230831 -0.8410909 0.1198617 -0.5207155 -0.8427511 0.1189683 
-0.5682299 0.1451573 0.805699 -0.5614088 0.1378971 0.8133965 
-0.4821826 -0.1907307 0.8513019 -0.5044705 -0.1842375 0.8410891 
-0.8546247 -0.474611 0.1954478 -0.8455983 -0.4955643 0.1898088 
-0.4460131 0.7511615 0.4816545 -0.4494989 0.74661 0.4870444 
0.6415816 -0.366729 0.6683977 0.6443288 -0.3707278 0.6656157 
-0.6055782 0.6752952 0.4128531 -0.6046991 0.6765561 0.4158089 
-0.5666198 0.7632583 0.2989538 -0.5702205 0.7596353 0.3067442 
